# .PCD v0.7 - Point Cloud Data file format
VERSION 0.7
FIELDS x y z rgb
SIZE 4 4 4 4
TYPE F F F U
COUNT 1 1 1 1
WIDTH 1215
HEIGHT 1
VIEWPOINT 0 0 0 1 0 0 0
POINTS 1215
DATA ascii
0.127 -0.13700001 0.95100003 10356763
0.12900001 -0.13700001 0.94900006 10158873
0.13000001 -0.13600001 0.94800007 14830945
0.132 -0.13600001 0.94800007 13514315
0.134 -0.13600001 0.94800007 10881312
0.13600001 -0.13700001 0.94900006 11471394
0.13800001 -0.13700001 0.95000005 11799333
0.14 -0.13700001 0.94900006 11864869
0.142 -0.13700001 0.94800007 11996455
0.14400001 -0.13600001 0.94700003 12062248
0.14500001 -0.13600001 0.94500005 11930407
0.147 -0.13600001 0.94200003 11930921
0.149 -0.13600001 0.94100004 11603750
0.15100001 -0.13600001 0.94100004 10947866
0.15200001 -0.13600001 0.94000006 10358029
0.15400001 -0.13500001 0.93900007 13779516
0.156 -0.13600001 0.94000006 16675947
0.15800001 -0.13600001 0.93900007 15097942
0.16000001 -0.13600001 0.93900007 14835284
0.162 -0.13600001 0.93900007 15359579
0.164 -0.13600001 0.94000006 13383998
0.16600001 -0.13600001 0.94000006 15095906
0.16800001 -0.13600001 0.93900007 11800614
0.17 -0.13600001 0.94000006 12458289
0.17200001 -0.13600001 0.94000006 12589106
0.17400001 -0.13600001 0.94100004 12652849
0.17600001 -0.13600001 0.94000006 12193070
0.177 -0.13600001 0.93900007 12193580
0.17900001 -0.13600001 0.93800002 12258860
0.18100001 -0.13600001 0.93800002 12324653
0.18300001 -0.13600001 0.93600005 12390446
0.185 -0.13600001 0.93600005 12390446
0.18700001 -0.13600001 0.93700004 12390446
0.18900001 -0.13600001 0.93700004 12456239
0.19100001 -0.13600001 0.93800002 12521775
0.193 -0.13600001 0.93800002 12587823
0.19500001 -0.13600001 0.93900007 12719152
0.19700001 -0.13600001 0.93800002 12719153
0.19900002 -0.13600001 0.93900007 12653361
0.20100001 -0.13600001 0.93900007 12718897
0.20300001 -0.13600001 0.93900007 12653104
0.20500001 -0.13700001 0.94100004 12653105
0.208 -0.13700001 0.94400007 12718127
0.21000001 -0.13800001 0.94700003 12193580
0.21400002 -0.13900001 0.95300007 11930924
0.21900001 -0.14 0.96500003 11930152
0.074000001 -0.13600001 0.96600002 14892136
0.076000005 -0.13600001 0.96300006 12923225
0.078000002 -0.13600001 0.96300006 10560580
0.080000006 -0.13600001 0.96200007 8127778
0.081 -0.13600001 0.95900005 5832721
0.083000004 -0.13500001 0.95800006 4718869
0.085000001 -0.13500001 0.95700002 4325914
0.087000005 -0.13500001 0.95500004 3342869
0.089000002 -0.13500001 0.95400006 2229520
0.091000006 -0.13500001 0.95400006 1836815
0.093000002 -0.13500001 0.95500004 1704974
0.094000004 -0.13500001 0.95300007 1376778
0.096000001 -0.13500001 0.95300007 2032654
0.098000005 -0.13500001 0.95100003 4067103
0.1 -0.13500001 0.95100003 6688286
0.10200001 -0.134 0.95000005 8063265
0.104 -0.134 0.94900006 8586783
0.105 -0.134 0.94900006 8520474
0.10700001 -0.134 0.94900006 9175578
0.109 -0.134 0.94900006 9634070
0.11100001 -0.134 0.94900006 9830933
0.11300001 -0.13500001 0.95100003 9962006
0.115 -0.13500001 0.95200002 10159128
0.11800001 -0.13500001 0.95300007 10290458
0.119 -0.13500001 0.95300007 10290458
0.12200001 -0.13500001 0.95500004 10356764
0.12400001 -0.13500001 0.95500004 10422557
0.125 -0.13500001 0.95300007 10487835
0.127 -0.13500001 0.95000005 10553629
0.12800001 -0.134 0.94800007 9895955
0.13000001 -0.134 0.94800007 13185605
0.132 -0.13500001 0.94800007 14960990
0.134 -0.13500001 0.94800007 11012383
0.13700001 -0.13500001 0.95100003 11406115
0.13900001 -0.13500001 0.95200002 11865639
0.141 -0.13500001 0.95200002 11996455
0.142 -0.13500001 0.95000005 11996455
0.14400001 -0.13500001 0.94800007 11996712
0.14600001 -0.13500001 0.94700003 11865382
0.147 -0.134 0.94400007 11996710
0.149 -0.134 0.94300002 11930916
0.15100001 -0.134 0.94300002 11735075
0.15300001 -0.134 0.94200003 13974598
0.15400001 -0.134 0.94000006 16081508
0.156 -0.134 0.94100004 16344935
0.15800001 -0.134 0.94100004 13449277
0.16000001 -0.134 0.94000006 12462130
0.162 -0.134 0.94000006 15226207
0.164 -0.134 0.94100004 12461875
0.16600001 -0.134 0.94100004 15554406
0.16800001 -0.134 0.94000006 12393519
0.17 -0.134 0.94100004 12655412
0.17200001 -0.134 0.94100004 12654388
0.17400001 -0.134 0.94100004 12587570
0.17600001 -0.134 0.94000006 12390191
0.177 -0.134 0.93900007 12128044
0.17900001 -0.134 0.93800002 12062251
0.18100001 -0.134 0.93800002 12324653
0.18300001 -0.134 0.93700004 12390446
0.185 -0.134 0.93600005 12390446
0.18700001 -0.134 0.93700004 12521519
0.18900001 -0.134 0.93700004 12521519
0.19100001 -0.134 0.93700004 12521775
0.193 -0.134 0.93700004 12522543
0.19500001 -0.134 0.93800002 12653617
0.19600001 -0.134 0.93700004 12653617
0.19900002 -0.134 0.93800002 12588080
0.20100001 -0.134 0.93800002 12522543
0.20300001 -0.134 0.93800002 12522287
0.20500001 -0.13500001 0.94000006 12587568
0.20700002 -0.13500001 0.94200003 12521776
0.21000001 -0.13500001 0.94400007 12258861
0.21300001 -0.13600001 0.95000005 11930407
0.21700001 -0.13700001 0.95900005 11995175
0.073000006 -0.13500001 0.96900004 15485556
0.074000001 -0.134 0.96400005 15548011
0.076000005 -0.134 0.96200007 14824544
0.078000002 -0.134 0.96100003 13903440
0.080000006 -0.134 0.96000004 12785729
0.081 -0.133 0.95800006 10751537
0.083000004 -0.133 0.95700002 8916524
0.085000001 -0.133 0.95800006 7671338
0.087000005 -0.133 0.95600003 6622242
0.089000002 -0.133 0.95500004 5311515
0.091000006 -0.133 0.95500004 4327702
0.093000002 -0.133 0.95500004 3932944
0.094000004 -0.133 0.95300007 3473678
0.096000001 -0.133 0.95300007 4524568
0.098000005 -0.133 0.95100003 7217204
0.1 -0.133 0.95100003 9709374
0.10200001 -0.132 0.95000005 11018817
0.104 -0.133 0.95000005 11345212
0.105 -0.132 0.94900006 11016246
0.10700001 -0.132 0.94900006 11081011
0.109 -0.132 0.94900006 11212338
0.11100001 -0.132 0.94900006 11278386
0.11300001 -0.133 0.95100003 11343152
0.115 -0.133 0.95200002 11012900
0.11800001 -0.133 0.95300007 10749728
0.12 -0.133 0.95400006 10881315
0.12200001 -0.133 0.95500004 10881313
0.12400001 -0.133 0.95500004 10815519
0.125 -0.133 0.95400006 10815519
0.127 -0.133 0.95000005 10749982
0.12800001 -0.133 0.94800007 10420761
0.13000001 -0.132 0.94700003 11869232
0.132 -0.133 0.94800007 15158369
0.134 -0.133 0.94900006 12394036
0.13700001 -0.133 0.95200002 11405858
0.13900001 -0.133 0.95400006 12063274
0.141 -0.133 0.95300007 12062761
0.14300001 -0.133 0.95200002 11931433
0.14400001 -0.133 0.95000005 11865640
0.14600001 -0.133 0.94800007 11865640
0.147 -0.133 0.94600004 11865383
0.149 -0.133 0.94600004 11602211
0.15100001 -0.132 0.94500005 14300490
0.15300001 -0.132 0.94300002 14894419
0.155 -0.132 0.94200003 13053752
0.15700001 -0.132 0.94200003 13513788
0.15900001 -0.132 0.94300002 13840962
0.16000001 -0.132 0.94100004 12524590
0.162 -0.132 0.94200003 13972292
0.164 -0.132 0.94300002 12853555
0.16600001 -0.132 0.94200003 14432332
0.16800001 -0.132 0.94000006 12918324
0.17 -0.132 0.94100004 12720435
0.17200001 -0.132 0.94100004 12588337
0.17400001 -0.132 0.94100004 12522032
0.17600001 -0.132 0.94100004 12390446
0.178 -0.132 0.94000006 12193837
0.17900001 -0.132 0.93900007 12128044
0.18100001 -0.132 0.93900007 12193837
0.18300001 -0.132 0.93700004 12193837
0.185 -0.132 0.93700004 12193837
0.18700001 -0.132 0.93800002 12259373
0.18900001 -0.132 0.93800002 12390446
0.19100001 -0.132 0.93800002 12390702
0.193 -0.132 0.93700004 12391214
0.19500001 -0.132 0.93800002 12522800
0.19600001 -0.132 0.93700004 12522800
0.19900002 -0.132 0.93800002 12522544
0.2 -0.132 0.93700004 12522288
0.20200001 -0.132 0.93700004 12390959
0.20400001 -0.132 0.93800002 12325166
0.20700002 -0.133 0.94000006 12324651
0.21000001 -0.133 0.94300002 12192553
0.21300001 -0.134 0.94800007 11930405
0.21600001 -0.13500001 0.95400006 11602727
0.072000004 -0.133 0.96700007 15812723
0.074000001 -0.132 0.96400005 15482731
0.076000005 -0.132 0.96100003 15220071
0.078000002 -0.132 0.95900005 14825314
0.079000004 -0.132 0.95900005 13970261
0.081 -0.13100001 0.95700002 12919368
0.083000004 -0.13100001 0.95600003 12065855
0.085000001 -0.13100001 0.95600003 11671099
0.087000005 -0.13100001 0.95600003 11211062
0.089000002 -0.13100001 0.95500004 10555185
0.091000006 -0.13100001 0.95500004 9898281
0.093000002 -0.13100001 0.95500004 9634339
0.094000004 -0.13100001 0.95300007 9043998
0.096000001 -0.13100001 0.95200002 9570342
0.098000005 -0.13100001 0.95100003 11673409
0.1 -0.13100001 0.95000005 13317463
0.10200001 -0.13000001 0.94900006 14104414
0.104 -0.13000001 0.94900006 13644119
0.105 -0.13000001 0.94900006 12856398
0.10700001 -0.13000001 0.94900006 12724041
0.109 -0.13100001 0.95000005 12461640
0.11100001 -0.13100001 0.95000005 12264774
0.11300001 -0.13100001 0.95100003 12065083
0.115 -0.13100001 0.95200002 11078436
0.11700001 -0.13100001 0.95300007 10815267
0.12 -0.13100001 0.95400006 11012644
0.12200001 -0.13100001 0.95500004 11078436
0.12400001 -0.13100001 0.95500004 11012643
0.125 -0.13100001 0.95400006 10946850
0.127 -0.13100001 0.95100003 10881055
0.12900001 -0.13100001 0.94900006 10749469
0.13000001 -0.13100001 0.94800007 10554400
0.132 -0.13100001 0.94900006 15816813
0.134 -0.13100001 0.95000005 15683944
0.13700001 -0.13100001 0.95300007 11077407
0.13900001 -0.132 0.95500004 11997226
0.141 -0.132 0.95500004 11997226
0.14300001 -0.132 0.95400006 11800617
0.14400001 -0.13100001 0.95200002 11734824
0.14600001 -0.13100001 0.95000005 11865898
0.148 -0.13100001 0.94900006 11668776
0.15000001 -0.13100001 0.94800007 11274532
0.15100001 -0.13100001 0.94700003 15223135
0.15300001 -0.13100001 0.94500005 13775938
0.155 -0.13000001 0.94300002 10947093
0.15700001 -0.13000001 0.94300002 14433611
0.15900001 -0.13000001 0.94400007 14300745
0.16100001 -0.13000001 0.94300002 12325932
0.162 -0.13000001 0.94300002 12457263
0.16500001 -0.13100001 0.94400007 12457263
0.16600001 -0.13000001 0.94300002 12785971
0.16800001 -0.13000001 0.94200003 12720179
0.17 -0.13000001 0.94200003 12522801
0.17200001 -0.13100001 0.94300002 12522544
0.17400001 -0.13000001 0.94200003 12522289
0.17600001 -0.13000001 0.94200003 12390446
0.178 -0.13000001 0.94100004 12324653
0.17900001 -0.13000001 0.94000006 12324653
0.18100001 -0.13000001 0.93900007 12258860
0.18300001 -0.13000001 0.93800002 12324910
0.185 -0.13000001 0.93800002 12324653
0.18700001 -0.13000001 0.93900007 12390446
0.18900001 -0.13000001 0.93800002 12390446
0.19100001 -0.13000001 0.93800002 12390447
0.193 -0.13000001 0.93800002 12521776
0.19500001 -0.13000001 0.93800002 12587824
0.19600001 -0.13000001 0.93700004 12587567
0.19800001 -0.13000001 0.93700004 12587313
0.2 -0.13000001 0.93700004 12652337
0.20200001 -0.13000001 0.93700004 12586288
0.20400001 -0.13000001 0.93700004 12520494
0.20700002 -0.13100001 0.93900007 12258347
0.20900001 -0.13100001 0.94200003 11995432
0.21200001 -0.132 0.94600004 11733285
0.215 -0.133 0.95200002 11405861
0.072000004 -0.13100001 0.96700007 15812466
0.074000001 -0.13000001 0.96300006 15482730
0.076000005 -0.13000001 0.96000004 15153508
0.077000007 -0.13000001 0.95800006 14956899
0.079000004 -0.12900001 0.95700002 14693984
0.081 -0.12900001 0.95600003 14233689
0.083000004 -0.12900001 0.95600003 13510221
0.085000001 -0.12900001 0.95600003 12983362
0.087000005 -0.12900001 0.95600003 12982593
0.089000002 -0.12900001 0.95600003 12720192
0.091000006 -0.12900001 0.95400006 12194874
0.093000002 -0.12900001 0.95400006 11734064
0.094000004 -0.12900001 0.95300007 11208746
0.096000001 -0.12900001 0.95200002 10946856
0.098000005 -0.12900001 0.95000005 12128817
0.1 -0.12800001 0.94900006 13904978
0.101 -0.12800001 0.94800007 15154018
0.10300001 -0.12800001 0.94700003 14564189
0.105 -0.12800001 0.94700003 13580631
0.10700001 -0.12900001 0.94900006 13186131
0.109 -0.12900001 0.95000005 12461896
0.11100001 -0.12900001 0.95100003 11540278
0.11400001 -0.12900001 0.95300007 11012650
0.116 -0.12900001 0.95400006 10683423
0.11800001 -0.12900001 0.95400006 10683680
0.12 -0.13000001 0.95500004 10946596
0.12200001 -0.13000001 0.95600003 11012387
0.12400001 -0.13000001 0.95600003 11077923
0.125 -0.13000001 0.95500004 11078436
0.127 -0.12900001 0.95300007 11012130
0.12900001 -0.12900001 0.95100003 11012128
0.13100001 -0.12900001 0.95100003 10159641
0.133 -0.12900001 0.95100003 16673662
0.13500001 -0.12900001 0.95200002 16737401
0.13700001 -0.13000001 0.95500004 10485780
0.13900001 -0.13000001 0.95700002 11996969
0.141 -0.13000001 0.95600003 11996969
0.14300001 -0.13000001 0.95400006 11996969
0.14500001 -0.13000001 0.95300007 11865383
0.14600001 -0.12900001 0.95200002 11734824
0.148 -0.12900001 0.95000005 11734569
0.15000001 -0.12900001 0.95000005 11602470
0.15200001 -0.12900001 0.94800007 13905990
0.15300001 -0.12900001 0.94600004 15816291
0.155 -0.12900001 0.94500005 15027285
0.15700001 -0.12900001 0.94500005 15816032
0.15900001 -0.12900001 0.94500005 14235206
0.16100001 -0.12900001 0.94500005 12194346
0.163 -0.12900001 0.94500005 12128043
0.16500001 -0.12900001 0.94600004 12128299
0.16600001 -0.12900001 0.94400007 12128043
0.16800001 -0.12900001 0.94300002 12259630
0.17 -0.12900001 0.94400007 12457008
0.17200001 -0.12900001 0.94400007 12391214
0.17400001 -0.12900001 0.94300002 12391214
0.17600001 -0.12900001 0.94200003 12259628
0.178 -0.12800001 0.94100004 12259630
0.18000001 -0.12800001 0.94100004 12128044
0.18200001 -0.12900001 0.94100004 12128044
0.18300001 -0.12800001 0.94000006 12128044
0.185 -0.12900001 0.94100004 12193580
0.18700001 -0.12900001 0.94100004 12324653
0.18900001 -0.12900001 0.94000006 12324653
0.19100001 -0.12800001 0.93800002 12324653
0.193 -0.12800001 0.93900007 12324909
0.19500001 -0.12800001 0.93800002 12390446
0.19600001 -0.12800001 0.93700004 12390445
0.19800001 -0.12800001 0.93700004 12390189
0.2 -0.12800001 0.93700004 12324397
0.20200001 -0.12800001 0.93600005 12193067
0.20400001 -0.12800001 0.93700004 12192554
0.20700002 -0.12900001 0.93900007 11995691
0.20900001 -0.12900001 0.94200003 11798828
0.21200001 -0.13000001 0.94600004 11470886
0.215 -0.13100001 0.95200002 11274534
0.21900001 -0.132 0.95900005 11010341
0.072000004 -0.12900001 0.96600002 15877490
0.074000001 -0.12800001 0.96200007 15416938
0.076000005 -0.12800001 0.96000004 15022435
0.077000007 -0.127 0.95700002 14825826
0.079000004 -0.127 0.95700002 14694753
0.081 -0.127 0.95500004 14497373
0.083000004 -0.127 0.95500004 14233173
0.085000001 -0.127 0.95500004 13706056
0.087000005 -0.127 0.95500004 13442631
0.089000002 -0.127 0.95500004 12786757
0.091000006 -0.127 0.95400006 12064572
0.092000008 -0.127 0.95400006 11996980
0.094000004 -0.127 0.95300007 11536428
0.096000001 -0.127 0.95200002 10748707
0.098000005 -0.127 0.95100003 10683681
0.1 -0.126 0.94800007 12064056
0.101 -0.126 0.94700003 14168664
0.10300001 -0.126 0.94700003 14629729
0.105 -0.126 0.94600004 13777241
0.10700001 -0.127 0.94800007 12989263
0.109 -0.127 0.95000005 11080497
0.11100001 -0.127 0.95100003 10421027
0.11400001 -0.127 0.95300007 10223648
0.116 -0.127 0.95400006 10551581
0.11800001 -0.127 0.95400006 10683167
0.12 -0.12800001 0.95500004 10880289
0.12200001 -0.12800001 0.95600003 11077154
0.12400001 -0.12800001 0.95700002 11142946
0.126 -0.12800001 0.95700002 11142946
0.127 -0.12800001 0.95500004 11208482
0.12900001 -0.12800001 0.95400006 11340068
0.13100001 -0.12800001 0.95400006 10354709
0.133 -0.12800001 0.95400006 14763862
0.13500001 -0.12800001 0.95500004 16671861
0.13700001 -0.12800001 0.95700002 11736108
0.13900001 -0.12800001 0.95800006 11340073
0.141 -0.12800001 0.95700002 11734571
0.14300001 -0.12800001 0.95700002 11734054
0.14500001 -0.12800001 0.95500004 11668771
0.147 -0.12800001 0.95400006 11669030
0.148 -0.12800001 0.95300007 11668774
0.15000001 -0.12800001 0.95200002 11734310
0.15200001 -0.127 0.95100003 11602724
0.15400001 -0.127 0.94800007 14695765
0.155 -0.127 0.94700003 15553385
0.15700001 -0.127 0.94700003 14828119
0.15900001 -0.127 0.94600004 13116986
0.16100001 -0.127 0.94600004 12260397
0.163 -0.127 0.94700003 12193837
0.16500001 -0.127 0.94700003 12193837
0.16700001 -0.127 0.94600004 12193837
0.16900001 -0.127 0.94500005 12325423
0.171 -0.127 0.94500005 12391216
0.17200001 -0.127 0.94500005 12325423
0.17400001 -0.127 0.94400007 12325423
0.17600001 -0.127 0.94400007 12325423
0.178 -0.127 0.94200003 12259630
0.18000001 -0.127 0.94200003 12193837
0.18200001 -0.127 0.94200003 12128044
0.18300001 -0.127 0.94100004 12128044
0.185 -0.127 0.94100004 12193580
0.18700001 -0.127 0.94100004 12258860
0.18900001 -0.127 0.94100004 12324653
0.19100001 -0.126 0.93900007 12324653
0.193 -0.127 0.93900007 12324398
0.19500001 -0.126 0.93800002 12324400
0.19600001 -0.126 0.93700004 12258863
0.19800001 -0.126 0.93700004 12127789
0.2 -0.127 0.93800002 12061996
0.20200001 -0.127 0.93800002 11995947
0.20400001 -0.127 0.93800002 11864362
0.20700002 -0.127 0.94000006 11733288
0.20900001 -0.127 0.94200003 11667750
0.21200001 -0.12800001 0.94600004 11405091
0.215 -0.12900001 0.95200002 11012132
0.21900001 -0.13000001 0.96000004 10879270
0.071000002 -0.127 0.97100008 16402807
0.072000004 -0.127 0.96700007 16008048
0.074000001 -0.126 0.96300006 15482216
0.076000005 -0.126 0.96000004 15022434
0.077000007 -0.126 0.95700002 14825567
0.079000004 -0.125 0.95600003 14693981
0.081 -0.125 0.95500004 14628188
0.083000004 -0.125 0.95400006 14430552
0.085000001 -0.125 0.95300007 14166095
0.087000005 -0.125 0.95400006 12982592
0.089000002 -0.125 0.95300007 11211060
0.090000004 -0.125 0.95200002 12861021
0.092000008 -0.125 0.95300007 12861279
0.094000004 -0.125 0.95300007 12333652
0.096000001 -0.125 0.95200002 10753846
0.098000005 -0.125 0.95100003 9962788
0.1 -0.125 0.94900006 10092578
0.101 -0.12400001 0.94700003 11475260
0.10300001 -0.12400001 0.94600004 14567787
0.105 -0.12400001 0.94700003 14173027
0.10700001 -0.125 0.94800007 12002626
0.109 -0.125 0.95100003 9306651
0.112 -0.125 0.95400006 9764894
0.11400001 -0.125 0.95400006 10485795
0.116 -0.126 0.95500004 10813983
0.11800001 -0.126 0.95600003 10879776
0.12 -0.126 0.95700002 11011362
0.12200001 -0.126 0.95700002 11142435
0.12400001 -0.126 0.95800006 11274021
0.126 -0.126 0.95900005 11208482
0.12800001 -0.126 0.95900005 11274275
0.13000001 -0.126 0.95800006 11340068
0.132 -0.126 0.95800006 10944546
0.134 -0.126 0.95800006 11868205
0.13600001 -0.126 0.95800006 16741759
0.13800001 -0.126 0.95900005 12594489
0.14 -0.127 0.96000004 10618394
0.142 -0.126 0.95900005 11602471
0.14300001 -0.126 0.95800006 11667754
0.14500001 -0.126 0.95700002 11601959
0.147 -0.126 0.95600003 11733288
0.149 -0.126 0.95500004 11470886
0.15100001 -0.126 0.95500004 11471400
0.15200001 -0.126 0.95300007 11405092
0.15400001 -0.126 0.95100003 11338786
0.156 -0.125 0.95000005 11667494
0.15800001 -0.125 0.95000005 11601958
0.16000001 -0.125 0.94900006 11865386
0.162 -0.126 0.95000005 12062765
0.164 -0.126 0.95100003 12128301
0.16600001 -0.126 0.95000005 12062508
0.16700001 -0.125 0.94900006 12193837
0.16900001 -0.125 0.94800007 12259630
0.171 -0.125 0.94700003 12325423
0.17300001 -0.125 0.94600004 12259630
0.17500001 -0.125 0.94600004 12259630
0.17600001 -0.125 0.94500005 12194094
0.178 -0.125 0.94400007 12128301
0.18000001 -0.125 0.94400007 12062508
0.18200001 -0.125 0.94300002 12062252
0.18400002 -0.125 0.94200003 12061997
0.186 -0.125 0.94200003 12127789
0.18700001 -0.125 0.94100004 12127790
0.18900001 -0.125 0.94000006 12127790
0.19100001 -0.125 0.93900007 12193326
0.193 -0.125 0.93900007 12193070
0.19500001 -0.125 0.93900007 12127276
0.19700001 -0.125 0.93900007 11995947
0.19900002 -0.125 0.93900007 11930665
0.20100001 -0.125 0.94000006 11864617
0.20300001 -0.125 0.93900007 11798825
0.20500001 -0.125 0.94000006 11667494
0.20700002 -0.125 0.94100004 11470886
0.21000001 -0.126 0.94400007 11536165
0.21200001 -0.126 0.94700003 11732517
0.21600001 -0.127 0.95300007 11142435
0.21900001 -0.12800001 0.96100003 10355233
0.072000004 -0.125 0.96700007 15876460
0.074000001 -0.12400001 0.96400005 15416165
0.076000005 -0.12400001 0.96100003 15022433
0.078000002 -0.12400001 0.95900005 14824797
0.079000004 -0.12400001 0.95800006 14759004
0.081 -0.123 0.95600003 14562138
0.083000004 -0.123 0.95400006 14430809
0.085000001 -0.123 0.95300007 13642066
0.087000005 -0.123 0.95400006 11408697
0.088000007 -0.123 0.95200002 13917817
0.090000004 -0.123 0.95200002 16760271
0.092000008 -0.123 0.95100003 16763096
0.094000004 -0.123 0.95200002 16760528
0.096000001 -0.123 0.95200002 16690625
0.098000005 -0.123 0.95200002 14448785
0.1 -0.123 0.95000005 10434129
0.101 -0.123 0.94800007 8195623
0.10300001 -0.12200001 0.94600004 9705523
0.105 -0.123 0.94700003 13912679
0.10700001 -0.123 0.94800007 11476541
0.11000001 -0.123 0.95200002 9437210
0.112 -0.12400001 0.95500004 10289440
0.11400001 -0.12400001 0.95600003 10945056
0.116 -0.12400001 0.95600003 11077155
0.11800001 -0.12400001 0.95700002 11077155
0.12 -0.12400001 0.95800006 11208485
0.12200001 -0.12400001 0.95800006 11274021
0.12400001 -0.12400001 0.96000004 11274021
0.126 -0.12400001 0.96000004 11339300
0.12800001 -0.125 0.96100003 11339556
0.13000001 -0.12400001 0.96000004 11470884
0.132 -0.125 0.96100003 11142435
0.134 -0.125 0.96100003 10289685
0.13600001 -0.125 0.96100003 16213357
0.13800001 -0.125 0.96200007 14502736
0.14 -0.125 0.96300006 10158605
0.142 -0.125 0.96200007 11339296
0.14400001 -0.125 0.96100003 11536166
0.14600001 -0.125 0.96000004 11470628
0.147 -0.125 0.95900005 11470886
0.149 -0.125 0.95900005 11536421
0.15100001 -0.12400001 0.95800006 11536164
0.15300001 -0.12400001 0.95600003 11733286
0.15400001 -0.12400001 0.95400006 11667750
0.156 -0.12400001 0.95200002 11536421
0.15800001 -0.12400001 0.95100003 11601957
0.16000001 -0.12400001 0.95100003 11865128
0.162 -0.12400001 0.95200002 11865129
0.164 -0.12400001 0.95200002 11930922
0.16600001 -0.12400001 0.95300007 11930922
0.16800001 -0.12400001 0.95200002 11996715
0.16900001 -0.12400001 0.95000005 12062508
0.171 -0.12400001 0.94900006 12128044
0.17300001 -0.12400001 0.94800007 12193837
0.17500001 -0.123 0.94700003 12193837
0.177 -0.123 0.94600004 12128301
0.178 -0.123 0.94600004 12062251
0.18000001 -0.123 0.94600004 12062251
0.18200001 -0.123 0.94500005 11996458
0.18400002 -0.123 0.94400007 12061996
0.186 -0.123 0.94400007 12061997
0.18800001 -0.123 0.94300002 12061997
0.18900001 -0.123 0.94200003 12061997
0.19100001 -0.123 0.94100004 12061741
0.193 -0.123 0.94100004 12127021
0.19500001 -0.123 0.94000006 11995691
0.19700001 -0.123 0.94000006 11798825
0.19900002 -0.123 0.94000006 11798825
0.20100001 -0.123 0.94100004 11733031
0.20300001 -0.123 0.94100004 11601957
0.20500001 -0.123 0.94200003 11536164
0.20700002 -0.123 0.94300002 11405093
0.21000001 -0.12400001 0.94500005 11601702
0.21300001 -0.12400001 0.94900006 11535653
0.21600001 -0.125 0.95500004 11798312
0.072000004 -0.123 0.96800005 15745387
0.074000001 -0.12200001 0.96400005 15022946
0.076000005 -0.12200001 0.96100003 14891104
0.077000007 -0.12200001 0.95900005 14693725
0.079000004 -0.12200001 0.95800006 14562139
0.081 -0.12200001 0.95600003 14364759
0.083000004 -0.12100001 0.95500004 13839954
0.085000001 -0.12100001 0.95400006 11738684
0.087000005 -0.12100001 0.95400006 13390443
0.089000002 -0.12100001 0.95300007 16763094
0.090000004 -0.12100001 0.95200002 16242395
0.092000008 -0.12100001 0.95100003 15848406
0.094000004 -0.12100001 0.95200002 15452875
0.096000001 -0.12100001 0.95100003 14990785
0.098000005 -0.12100001 0.95200002 15056580
0.1 -0.12100001 0.95000005 14332345
0.10200001 -0.12100001 0.95000005 12550029
0.10300001 -0.12100001 0.94900006 10962781
0.105 -0.12100001 0.95000005 10429503
0.108 -0.12100001 0.95100003 10951224
0.11000001 -0.12200001 0.95500004 10751016
0.112 -0.12200001 0.95600003 11012389
0.11400001 -0.12200001 0.95800006 11011362
0.116 -0.12200001 0.95700002 11208741
0.11800001 -0.12200001 0.95800006 11339814
0.12 -0.12200001 0.95900005 11405093
0.12200001 -0.12200001 0.95900005 11274021
0.12400001 -0.123 0.96100003 11405093
0.126 -0.123 0.96200007 11404580
0.12800001 -0.123 0.96300006 11469860
0.13000001 -0.123 0.96300006 11470373
0.132 -0.123 0.96400005 10881056
0.134 -0.123 0.96400005 10289941
0.13600001 -0.123 0.96400005 14499152
0.13800001 -0.123 0.96500003 15815009
0.141 -0.123 0.96600002 10814229
0.142 -0.123 0.96500003 11207199
0.14400001 -0.123 0.96400005 11272994
0.14600001 -0.123 0.96300006 11405091
0.148 -0.123 0.96200007 11470374
0.15000001 -0.123 0.96100003 11470373
0.15100001 -0.123 0.96000004 11470373
0.15300001 -0.123 0.95900005 11536165
0.155 -0.12200001 0.95600003 11404578
0.15700001 -0.12200001 0.95500004 11470371
0.15900001 -0.12200001 0.95500004 11536421
0.16000001 -0.12200001 0.95400006 11602212
0.162 -0.12200001 0.95500004 11799594
0.164 -0.12200001 0.95500004 11799338
0.16600001 -0.12200001 0.95500004 11799338
0.16800001 -0.12200001 0.95500004 11865131
0.17 -0.12200001 0.95300007 11865131
0.17200001 -0.12200001 0.95100003 11865131
0.17300001 -0.12200001 0.95000005 11930668
0.17500001 -0.12200001 0.94900006 11996204
0.177 -0.12200001 0.94800007 11996459
0.17900001 -0.12200001 0.94800007 11930922
0.18100001 -0.12200001 0.94700003 11930923
0.18300001 -0.12200001 0.94700003 11865131
0.18400002 -0.12100001 0.94500005 11930667
0.186 -0.12100001 0.94400007 11996204
0.18800001 -0.12100001 0.94400007 11930411
0.19000001 -0.12100001 0.94400007 11930411
0.192 -0.12100001 0.94300002 11995947
0.19400001 -0.12100001 0.94300002 11995434
0.19500001 -0.12100001 0.94300002 11798825
0.19700001 -0.12100001 0.94300002 11733032
0.19900002 -0.12100001 0.94300002 11667239
0.20200001 -0.12200001 0.94400007 11535908
0.20400001 -0.12200001 0.94400007 11470371
0.20600002 -0.12200001 0.94600004 11470114
0.208 -0.12200001 0.94700003 11470115
0.21100001 -0.12200001 0.94900006 11535140
0.21300001 -0.123 0.95200002 11405350
0.21700001 -0.12400001 0.95900005 9831707
0.072000004 -0.12100001 0.96700007 15811181
0.074000001 -0.12100001 0.96400005 14957153
0.076000005 -0.12 0.96200007 14825567
0.077000007 -0.12 0.95900005 14628188
0.079000004 -0.12 0.95800006 14496346
0.081 -0.12 0.95600003 14233687
0.083000004 -0.119 0.95400006 12723271
0.085000001 -0.119 0.95300007 12073554
0.087000005 -0.119 0.95300007 16757440
0.088000007 -0.119 0.95200002 16572129
0.090000004 -0.119 0.95200002 16109780
0.092000008 -0.119 0.95100003 15386830
0.094000004 -0.119 0.95200002 14664905
0.096000001 -0.119 0.95100003 14532548
0.098000005 -0.119 0.95100003 14596029
0.1 -0.119 0.95100003 14266809
0.10200001 -0.119 0.95200002 14526645
0.104 -0.119 0.95100003 15509431
0.10600001 -0.119 0.95300007 13072773
0.108 -0.12 0.95400006 8528435
0.11000001 -0.12 0.95600003 7667990
0.112 -0.12 0.95800006 9307680
0.11400001 -0.12 0.95800006 9635101
0.116 -0.12 0.95800006 11274021
0.11800001 -0.12 0.95900005 11274536
0.12 -0.12 0.96000004 11208741
0.12200001 -0.12100001 0.96100003 11471398
0.12400001 -0.12100001 0.96200007 11470884
0.127 -0.12100001 0.96400005 11405091
0.12800001 -0.12100001 0.96400005 11274274
0.13000001 -0.12100001 0.96400005 11274016
0.133 -0.12100001 0.96500003 11273249
0.13500001 -0.12100001 0.96600002 11076385
0.13700001 -0.12100001 0.96700007 12720694
0.13900001 -0.12200001 0.96800005 16211570
0.141 -0.12200001 0.96800005 11671848
0.14300001 -0.12200001 0.96700007 10290706
0.14400001 -0.12100001 0.96600002 11010842
0.14600001 -0.12100001 0.96500003 11207199
0.148 -0.12100001 0.96400005 11338786
0.15000001 -0.12100001 0.96400005 11404578
0.15200001 -0.12100001 0.96200007 11470371
0.15400001 -0.12100001 0.96200007 11536165
0.155 -0.12100001 0.96000004 11536165
0.15700001 -0.12100001 0.95900005 11601957
0.15900001 -0.12100001 0.95800006 11733543
0.16100001 -0.12100001 0.95700002 11733543
0.163 -0.12100001 0.95700002 11865129
0.16500001 -0.12100001 0.95700002 11799336
0.16600001 -0.12100001 0.95600003 11799336
0.16800001 -0.12100001 0.95600003 11799336
0.17 -0.12 0.95400006 11733543
0.17200001 -0.12 0.95300007 11733543
0.17400001 -0.12 0.95200002 11799336
0.17500001 -0.12 0.95100003 11799336
0.177 -0.12 0.95000005 11799080
0.17900001 -0.12 0.95000005 11864871
0.18100001 -0.12 0.94900006 11930664
0.18300001 -0.12 0.94900006 11865129
0.18400002 -0.12 0.94700003 11865130
0.186 -0.12 0.94600004 11865129
0.18800001 -0.12 0.94600004 11733544
0.19000001 -0.12 0.94600004 11733544
0.192 -0.12 0.94500005 11602214
0.19400001 -0.12 0.94600004 11536677
0.19600001 -0.12 0.94500005 11602213
0.19800001 -0.12 0.94600004 11732774
0.2 -0.12 0.94600004 11600932
0.20200001 -0.12 0.94700003 11404322
0.20400001 -0.12 0.94700003 11207971
0.20700002 -0.12 0.94900006 11207714
0.20900001 -0.12100001 0.95100003 11010848
0.21100001 -0.12100001 0.95200002 11207205
0.21400002 -0.12100001 0.95700002 10356003
0.21800001 -0.12200001 0.96400005 8062483
0.072000004 -0.119 0.96800005 15548523
0.074000001 -0.119 0.96400005 15022177
0.076000005 -0.11800001 0.96100003 15022690
0.077000007 -0.11800001 0.95900005 14693468
0.079000004 -0.11800001 0.95800006 14233174
0.081 -0.11800001 0.95600003 13380688
0.083000004 -0.11700001 0.95400006 11412033
0.085000001 -0.11700001 0.95300007 14711440
0.087000005 -0.11700001 0.95400006 16503768
0.088000007 -0.11700001 0.95300007 16109522
0.090000004 -0.11700001 0.95200002 15977681
0.092000008 -0.11700001 0.95200002 14993096
0.094000004 -0.11700001 0.95200002 15187654
0.096000001 -0.11700001 0.95100003 14532034
0.098000005 -0.11700001 0.95200002 14399678
0.1 -0.11700001 0.95200002 14267319
0.10200001 -0.11700001 0.95300007 14069171
0.104 -0.11800001 0.95400006 13805227
0.10600001 -0.11800001 0.95500004 14988215
0.108 -0.11800001 0.95600003 15182000
0.11000001 -0.11800001 0.95800006 10636893
0.112 -0.11800001 0.95900005 7275544
0.11400001 -0.11800001 0.95900005 8653347
0.116 -0.11800001 0.96000004 10881832
0.11800001 -0.119 0.96100003 11142950
0.12 -0.119 0.96200007 11536679
0.12200001 -0.119 0.96200007 11275304
0.125 -0.119 0.96400005 11209511
0.127 -0.119 0.96600002 11405350
0.12900001 -0.119 0.96600002 11470629
0.13100001 -0.119 0.96600002 11339555
0.133 -0.119 0.96700007 11142689
0.13500001 -0.12 0.96900004 10880289
0.13700001 -0.12 0.96900004 10945568
0.13900001 -0.12 0.97000003 14633565
0.141 -0.12 0.97100008 13119551
0.14300001 -0.12 0.97100008 9896976
0.14500001 -0.12 0.96900004 10880027
0.147 -0.12 0.96800005 11141920
0.149 -0.12 0.96800005 11273507
0.15100001 -0.12 0.96700007 11273506
0.15200001 -0.12 0.96600002 11339299
0.15400001 -0.119 0.96400005 11405093
0.156 -0.119 0.96400005 11536679
0.15800001 -0.119 0.96200007 11536678
0.15900001 -0.119 0.96100003 11668263
0.16100001 -0.119 0.96100003 11668265
0.163 -0.119 0.96100003 11667752
0.16500001 -0.119 0.96000004 11667752
0.16700001 -0.119 0.96000004 11667752
0.16900001 -0.119 0.95900005 11536166
0.171 -0.119 0.95700002 11536166
0.17200001 -0.119 0.95500004 11536166
0.17400001 -0.11800001 0.95400006 11470373
0.17600001 -0.11800001 0.95400006 11536166
0.178 -0.11800001 0.95300007 11470116
0.18000001 -0.11800001 0.95300007 11667493
0.18200001 -0.11800001 0.95300007 11799079
0.18400002 -0.11800001 0.95300007 11733288
0.185 -0.11800001 0.95000005 11733544
0.18700001 -0.11800001 0.94900006 11733544
0.18900001 -0.11800001 0.94800007 11667751
0.19000001 -0.11800001 0.94700003 11536166
0.192 -0.11800001 0.94700003 11601700
0.19400001 -0.11800001 0.94800007 11601700
0.19600001 -0.11800001 0.94800007 11470371
0.19900002 -0.11800001 0.94900006 11601444
0.20100001 -0.11800001 0.95000005 11469858
0.20300001 -0.11800001 0.95000005 11338786
0.20500001 -0.119 0.95200002 11272481
0.208 -0.119 0.95400006 11469088
0.21000001 -0.119 0.95600003 10551326
0.21300001 -0.12 0.95900005 9895959
0.21600001 -0.12 0.96500003 8585486
0.072000004 -0.11700001 0.96900004 15351400
0.074000001 -0.11700001 0.96400005 15284324
0.076000005 -0.116 0.96200007 14891362
0.077000007 -0.116 0.95900005 14693725
0.079000004 -0.116 0.95800006 13971284
0.081 -0.116 0.95600003 11739201
0.083000004 -0.116 0.95500004 14050174
0.085000001 -0.116 0.95400006 16697049
0.087000005 -0.116 0.95500004 15454417
0.089000002 -0.116 0.95400006 15845322
0.090000004 -0.115 0.95300007 15518152
0.092000008 -0.115 0.95300007 15123395
0.094000004 -0.115 0.95200002 14663102
0.096000001 -0.115 0.95200002 14008254
0.098000005 -0.115 0.95200002 14333885
0.1 -0.115 0.95200002 13939893
0.10200001 -0.116 0.95300007 13873586
0.104 -0.116 0.95500004 14201268
0.10600001 -0.116 0.95600003 14134705
0.108 -0.116 0.95700002 14791352
0.11000001 -0.116 0.95900005 15710399
0.112 -0.116 0.96000004 12416128
0.11400001 -0.116 0.96000004 7542056
0.116 -0.11700001 0.96100003 8389654
0.11800001 -0.11700001 0.96200007 10359080
0.12 -0.11700001 0.96300006 11274791
0.123 -0.11700001 0.96400005 11602216
0.125 -0.11700001 0.96600002 11340070
0.127 -0.11800001 0.96800005 11274276
0.12900001 -0.11700001 0.96700007 11470628
0.13100001 -0.11800001 0.96800005 11666724
0.133 -0.11800001 0.96900004 11011358
0.13500001 -0.11800001 0.97100008 10749215
0.13700001 -0.11800001 0.97100008 10486041
0.13900001 -0.11800001 0.97200006 13317960
0.141 -0.11800001 0.97200006 14435922
0.14300001 -0.11800001 0.97200006 9700109
0.14500001 -0.11800001 0.97000003 10946075
0.147 -0.11800001 0.97000003 11207968
0.149 -0.11800001 0.96900004 11338785
0.15100001 -0.11800001 0.96900004 11338787
0.15300001 -0.11800001 0.96900004 11404580
0.155 -0.11800001 0.96800005 11470371
0.15700001 -0.11800001 0.96800005 11470371
0.15800001 -0.11800001 0.96600002 11536166
0.16000001 -0.11800001 0.96500003 11601959
0.162 -0.11800001 0.96400005 11601957
0.164 -0.11800001 0.96400005 11470884
0.16600001 -0.11700001 0.96300006 11470884
0.16700001 -0.11700001 0.96200007 11405091
0.16900001 -0.11700001 0.96100003 11405091
0.171 -0.11700001 0.95900005 11339298
0.17300001 -0.11700001 0.95800006 11339298
0.17400001 -0.11700001 0.95700002 11339298
0.17600001 -0.11700001 0.95700002 11339298
0.178 -0.11700001 0.95700002 11404321
0.18000001 -0.11700001 0.95700002 11535653
0.18200001 -0.11700001 0.95700002 11470372
0.18400002 -0.11700001 0.95600003 11470373
0.186 -0.11700001 0.95400006 11470373
0.18800001 -0.11700001 0.95300007 11470373
0.18900001 -0.11700001 0.95200002 11470373
0.19100001 -0.116 0.95100003 11404580
0.193 -0.116 0.95100003 11470115
0.19500001 -0.11700001 0.95200002 11339300
0.19700001 -0.11700001 0.95200002 11273508
0.19900002 -0.11700001 0.95200002 11273509
0.20200001 -0.11700001 0.95400006 11076129
0.20400001 -0.11700001 0.95500004 10814756
0.20600002 -0.11700001 0.95700002 10422564
0.20900001 -0.11800001 0.96000004 9831968
0.21200001 -0.11800001 0.96300006 7733524
0.21400002 -0.119 0.96700007 7146779
0.21800001 -0.12 0.97400004 10110807
0.072000004 -0.115 0.96900004 15155559
0.074000001 -0.115 0.96400005 14957154
0.076000005 -0.11400001 0.96100003 14432094
0.077000007 -0.11400001 0.95800006 14300507
0.079000004 -0.11400001 0.95800006 12657223
0.081 -0.11400001 0.95700002 13058911
0.083000004 -0.11400001 0.95600003 16627914
0.085000001 -0.11400001 0.95700002 16636645
0.087000005 -0.11400001 0.95700002 16110296
0.089000002 -0.11400001 0.95600003 15519183
0.091000006 -0.11400001 0.95600003 15387595
0.092000008 -0.11400001 0.95500004 14469059
0.094000004 -0.11400001 0.95400006 14859966
0.096000001 -0.11400001 0.95300007 14859968
0.098000005 -0.11400001 0.95300007 14269632
0.1 -0.11400001 0.95300007 14791867
0.10200001 -0.11400001 0.95400006 14333624
0.104 -0.11400001 0.95600003 14203065
0.10600001 -0.11400001 0.95700002 14399162
0.108 -0.11400001 0.95800006 14661821
0.11000001 -0.115 0.96000004 14529206
0.112 -0.115 0.96100003 16038852
0.115 -0.115 0.96200007 14587558
0.11700001 -0.115 0.96300006 8857908
0.119 -0.115 0.96400005 7735063
0.12100001 -0.115 0.96500003 10095909
0.123 -0.115 0.96600002 11273768
0.125 -0.115 0.96700007 11601705
0.127 -0.116 0.96900004 11274534
0.12900001 -0.116 0.97000003 11077922
0.13100001 -0.116 0.97200006 11208484
0.133 -0.116 0.97200006 11142431
0.13600001 -0.116 0.97400004 10880031
0.13800001 -0.116 0.97400004 10813981
0.142 -0.116 0.97400004 15159389
0.14400001 -0.11700001 0.97400004 9700109
0.14500001 -0.116 0.97300005 10880795
0.147 -0.116 0.97200006 11076639
0.149 -0.116 0.97200006 11273505
0.15100001 -0.116 0.97200006 11273507
0.15300001 -0.116 0.97200006 11273507
0.155 -0.116 0.97100008 11339298
0.15700001 -0.116 0.97100008 11273505
0.15900001 -0.116 0.97000003 11273507
0.16100001 -0.116 0.96900004 11273507
0.162 -0.116 0.96700007 11273505
0.164 -0.116 0.96700007 11273507
0.16600001 -0.116 0.96600002 11273507
0.16800001 -0.116 0.96500003 11273507
0.17 -0.116 0.96500003 11273507
0.17200001 -0.116 0.96300006 11339300
0.17300001 -0.115 0.96200007 11339300
0.17500001 -0.116 0.96200007 11273507
0.177 -0.115 0.96100003 11207714
0.17900001 -0.115 0.96000004 11207971
0.18100001 -0.115 0.96100003 11207971
0.18300001 -0.116 0.96100003 11207971
0.185 -0.115 0.95900005 11207971
0.18700001 -0.115 0.95800006 11207971
0.18800001 -0.115 0.95700002 11207972
0.19000001 -0.115 0.95600003 11010594
0.192 -0.115 0.95500004 11076385
0.19400001 -0.115 0.95500004 11076641
0.19600001 -0.115 0.95500004 11012388
0.19800001 -0.115 0.95600003 10619942
0.2 -0.115 0.95600003 10226214
0.20200001 -0.115 0.95800006 9963302
0.20500001 -0.116 0.96100003 8716827
0.208 -0.116 0.96400005 6882322
0.21000001 -0.11700001 0.96700007 7478572
0.21400002 -0.11700001 0.97300005 11958150
0.073000006 -0.11400001 0.97100008 14959464
0.074000001 -0.11300001 0.96600002 15088226
0.076000005 -0.11300001 0.96300006 13906006
0.078000002 -0.112 0.96000004 13249874
0.079000004 -0.112 0.96000004 11806794
0.081 -0.112 0.95900005 16097203
0.083000004 -0.112 0.95800006 16769769
0.085000001 -0.112 0.95800006 15980249
0.087000005 -0.112 0.95900005 15651026
0.089000002 -0.112 0.95800006 15256269
0.091000006 -0.112 0.95700002 15059404
0.093000002 -0.112 0.95600003 14862537
0.094000004 -0.112 0.95500004 14730951
0.096000001 -0.112 0.95500004 14599365
0.098000005 -0.112 0.95400006 14467779
0.1 -0.112 0.95400006 14532030
0.10200001 -0.112 0.95500004 14335164
0.104 -0.112 0.95700002 14334651
0.10600001 -0.112 0.95700002 14399160
0.108 -0.112 0.95900005 14135218
0.11000001 -0.11300001 0.96100003 13872816
0.11300001 -0.11300001 0.96200007 13872047
0.115 -0.11300001 0.96300006 14792378
0.11700001 -0.11300001 0.96400005 15048362
0.119 -0.11300001 0.96600002 10110035
0.12100001 -0.11300001 0.96600002 7668759
0.123 -0.11400001 0.96700007 9438232
0.125 -0.11400001 0.96800005 11209765
0.127 -0.11400001 0.97100008 11077155
0.12900001 -0.11400001 0.97200006 11011364
0.132 -0.11400001 0.97400004 10945056
0.14600001 -0.115 0.97400004 11011357
0.148 -0.115 0.97400004 11141916
0.15000001 -0.115 0.97400004 10616865
0.15200001 -0.115 0.97400004 10944801
0.16000001 -0.115 0.97400004 11075874
0.162 -0.115 0.97400004 11010335
0.163 -0.115 0.97200006 10748190
0.16500001 -0.115 0.97200006 10617374
0.16700001 -0.11400001 0.97000003 10879778
0.16900001 -0.11400001 0.97000003 11010851
0.171 -0.11400001 0.96900004 10945058
0.17200001 -0.11400001 0.96800005 10945058
0.17400001 -0.11400001 0.96800005 10879265
0.17600001 -0.11400001 0.96700007 10813729
0.178 -0.11400001 0.96800005 10879265
0.18000001 -0.11400001 0.96600002 11141404
0.18200001 -0.11400001 0.96600002 10748704
0.18400002 -0.11400001 0.96700007 10748704
0.186 -0.11400001 0.96500003 11141923
0.18800001 -0.11400001 0.96400005 10946084
0.18900001 -0.11400001 0.96300006 10552096
0.19100001 -0.11400001 0.96200007 10485788
0.193 -0.11400001 0.96200007 10027032
0.19500001 -0.11400001 0.96200007 7405587
0.19700001 -0.11400001 0.96200007 6750226
0.19900002 -0.11400001 0.96300006 5703188
0.20100001 -0.11400001 0.96300006 4197396
0.20400001 -0.11400001 0.96500003 4463397
0.20600002 -0.115 0.96700007 7293267
0.20900001 -0.115 0.97200006 12163750
0.074000001 -0.11100001 0.96900004 15284837
0.076000005 -0.11100001 0.96500003 14039390
0.078000002 -0.11100001 0.96200007 12267344
0.080000006 -0.11100001 0.96100003 14969736
0.081 -0.11100001 0.96100003 16762838
0.083000004 -0.11000001 0.96000004 16702689
0.085000001 -0.11100001 0.96100003 16110807
0.087000005 -0.11100001 0.96200007 15321804
0.089000002 -0.11100001 0.96100003 15256268
0.091000006 -0.11000001 0.95900005 15058889
0.093000002 -0.11000001 0.95800006 14927303
0.094000004 -0.11000001 0.95600003 14729924
0.096000001 -0.11000001 0.95500004 14664388
0.098000005 -0.11000001 0.95500004 14270657
0.1 -0.11000001 0.95500004 14466239
0.10200001 -0.11000001 0.95600003 14400446
0.104 -0.11000001 0.95800006 14400446
0.10600001 -0.11000001 0.95800006 14071480
0.108 -0.11100001 0.95900005 14070709
0.11000001 -0.11100001 0.96100003 13479085
0.11300001 -0.11100001 0.96200007 13413549
0.115 -0.11100001 0.96400005 13741744
0.11700001 -0.11100001 0.96500003 14791608
0.119 -0.112 0.96700007 15249592
0.12100001 -0.112 0.96700007 10967399
0.123 -0.112 0.96800005 7604506
0.125 -0.112 0.96900004 9505313
0.127 -0.112 0.97200006 10882087
0.13000001 -0.112 0.97400004 10814497
0.17 -0.11300001 0.97500002 11339300
0.17200001 -0.11300001 0.97500002 11077411
0.17400001 -0.11300001 0.97500002 10946339
0.17600001 -0.11300001 0.97400004 11142694
0.178 -0.11300001 0.97400004 11207717
0.18000001 -0.11300001 0.97500002 11208743
0.18200001 -0.11300001 0.97400004 11141408
0.18400002 -0.11300001 0.97400004 10553121
0.186 -0.11300001 0.97500002 9111582
0.18700001 -0.11300001 0.97300005 7667987
0.18900001 -0.11300001 0.97200006 7276312
0.19100001 -0.11300001 0.97100008 6754331
0.193 -0.11300001 0.97000003 6953253
0.19500001 -0.11300001 0.97000003 8269117
0.19700001 -0.11300001 0.97100008 9197669
0.19900002 -0.11300001 0.97100008 11501452
0.20100001 -0.11300001 0.97200006 12623528
0.20300001 -0.11300001 0.97200006 12693943
0.20600002 -0.11300001 0.97400004 12631748
0.074000001 -0.11000001 0.97100008 14764651
0.076000005 -0.109 0.96700007 12794711
0.078000002 -0.109 0.96400005 10893647
0.080000006 -0.109 0.96300006 16032948
0.082000002 -0.109 0.96200007 16765916
0.083000004 -0.109 0.96100003 16243423
0.085000001 -0.109 0.96200007 15652312
0.087000005 -0.109 0.96300006 15389140
0.089000002 -0.109 0.96200007 15059918
0.091000006 -0.109 0.96100003 15059659
0.093000002 -0.109 0.96000004 15190476
0.095000006 -0.108 0.95800006 14927562
0.096000001 -0.108 0.95700002 14730181
0.098000005 -0.108 0.95700002 15058889
0.1 -0.108 0.95700002 14993353
0.10200001 -0.108 0.95800006 14532545
0.104 -0.109 0.95900005 14400446
0.10600001 -0.109 0.96000004 14137530
0.109 -0.109 0.96100003 13676979
0.11100001 -0.109 0.96200007 13610414
0.11300001 -0.109 0.96300006 13544621
0.115 -0.109 0.96500003 13545135
0.11700001 -0.11000001 0.96700007 13676721
0.119 -0.11000001 0.96800005 13805739
0.12100001 -0.11000001 0.96900004 15709374
0.123 -0.11000001 0.97000003 11888244
0.125 -0.11000001 0.97000003 8000807
0.12800001 -0.11000001 0.97300005 8718107
0.075000003 -0.108 0.97300005 11223638
0.076000005 -0.108 0.96900004 11422046
0.078000002 -0.10700001 0.96600002 15574196
0.080000006 -0.10700001 0.96400005 16572644
0.082000002 -0.10700001 0.96400005 16769512
0.084000006 -0.10700001 0.96400005 16243165
0.086000003 -0.10700001 0.96400005 15914456
0.088000007 -0.10700001 0.96500003 15256784
0.089000002 -0.10700001 0.96400005 15586004
0.091000006 -0.10700001 0.96300006 12691625
0.093000002 -0.10700001 0.96100003 11836829
0.095000006 -0.10700001 0.96000004 12166564
0.097000003 -0.10700001 0.95900005 11640476
0.099000007 -0.10700001 0.95900005 10324102
0.101 -0.10700001 0.95900005 10455690
0.10200001 -0.10700001 0.95900005 12165280
0.105 -0.10700001 0.96000004 13809592
0.10700001 -0.10700001 0.96100003 13481141
0.109 -0.10700001 0.96200007 13480627
0.11100001 -0.10700001 0.96300006 13479088
0.11300001 -0.10700001 0.96500003 13544367
0.115 -0.10700001 0.96600002 13347758
0.11700001 -0.108 0.96900004 13874100
0.119 -0.108 0.97000003 13741485
0.12200001 -0.108 0.97200006 14069425
0.12400001 -0.108 0.97300005 15251392
0.126 -0.108 0.97400004 13404566
0.076000005 -0.10600001 0.97200006 16501976
0.078000002 -0.10600001 0.96900004 16772850
0.080000006 -0.105 0.96700007 16179170
0.082000002 -0.105 0.96600002 15915743
0.084000006 -0.105 0.96500003 15849692
0.086000003 -0.105 0.96400005 15915226
0.087000005 -0.105 0.96400005 15060172
0.089000002 -0.105 0.96400005 12034209
0.091000006 -0.105 0.96300006 7889508
0.093000002 -0.105 0.96200007 7560542
0.095000006 -0.105 0.96100003 8021348
0.097000003 -0.105 0.96000004 6639695
0.099000007 -0.105 0.96000004 5718593
0.101 -0.105 0.96000004 8349543
0.10300001 -0.105 0.96100003 13349298
0.105 -0.105 0.96200007 14203837
0.10700001 -0.105 0.96300006 13743285
0.109 -0.105 0.96400005 13545649
0.11100001 -0.105 0.96400005 13544878
0.11300001 -0.105 0.96600002 13544621
0.115 -0.10600001 0.96700007 13544621
0.11700001 -0.10600001 0.96900004 13610157
0.119 -0.10600001 0.97100008 13412522
0.12200001 -0.10600001 0.97400004 13280936
0.12400001 -0.10700001 0.97500002 13148837
0.077000007 -0.104 0.97400004 16642031
0.078000002 -0.104 0.97100008 16311269
0.080000006 -0.104 0.96800005 15982048
0.082000002 -0.10300001 0.96700007 15980508
0.084000006 -0.10300001 0.96500003 16112349
0.086000003 -0.10300001 0.96400005 15849434
0.087000005 -0.10300001 0.96300006 14533831
0.089000002 -0.10300001 0.96300006 9863041
0.091000006 -0.10300001 0.96200007 9205368
0.093000002 -0.10300001 0.96100003 14074049
0.095000006 -0.10300001 0.96100003 14205890
0.097000003 -0.10300001 0.96000004 13351094
0.099000007 -0.10300001 0.96000004 13088179
0.101 -0.10300001 0.96000004 13613495
0.10300001 -0.10300001 0.96100003 15323344
0.105 -0.10300001 0.96200007 14007227
0.10700001 -0.10300001 0.96400005 13743285
0.109 -0.10300001 0.96500003 13611443
0.11100001 -0.10300001 0.96500003 13544624
0.11300001 -0.104 0.96700007 13544110
0.115 -0.104 0.96900004 13544110
0.11700001 -0.104 0.97100008 13478315
0.12 -0.104 0.97400004 13281193
0.078000002 -0.10200001 0.97300005 16310242
0.080000006 -0.10200001 0.97000003 16046811
0.082000002 -0.10200001 0.96900004 15979991
0.084000006 -0.101 0.96700007 15717591
0.086000003 -0.101 0.96400005 15323347
0.087000005 -0.101 0.96200007 14665417
0.089000002 -0.101 0.96200007 10520715
0.091000006 -0.101 0.96200007 11837088
0.093000002 -0.101 0.96100003 14731980
0.095000006 -0.101 0.96200007 14403784
0.097000003 -0.101 0.96200007 14535627
0.099000007 -0.101 0.96200007 14535368
0.101 -0.101 0.96200007 14008765
0.10300001 -0.101 0.96300006 13876923
0.105 -0.101 0.96400005 13876410
0.10700001 -0.101 0.96500003 13612468
0.109 -0.10200001 0.96600002 13480368
0.11100001 -0.10200001 0.96700007 13348269
0.11300001 -0.10200001 0.96900004 13347756
0.115 -0.10200001 0.97100008 13413292
0.11800001 -0.10200001 0.97400004 13215913
0.079000004 -0.1 0.97500002 15588829
0.080000006 -0.1 0.97200006 15981277
0.082000002 -0.1 0.97000003 15717076
0.084000006 -0.1 0.96700007 15257297
0.086000003 -0.099000007 0.96500003 14929103
0.087000005 -0.099000007 0.96300006 14534602
0.089000002 -0.099000007 0.96200007 12823984
0.091000006 -0.099000007 0.96200007 13679292
0.093000002 -0.099000007 0.96200007 14863566
0.095000006 -0.099000007 0.96200007 14271942
0.097000003 -0.099000007 0.96300006 14272198
0.099000007 -0.099000007 0.96300006 14140354
0.101 -0.099000007 0.96300006 13745338
0.10300001 -0.099000007 0.96400005 13547959
0.105 -0.099000007 0.96500003 13613237
0.10700001 -0.1 0.96600002 13612468
0.109 -0.1 0.96800005 13348782
0.11100001 -0.1 0.97000003 13282732
0.11400001 -0.1 0.97200006 13216683
0.116 -0.1 0.97400004 13281964
0.081 -0.098000005 0.97400004 15586519
0.082000002 -0.098000005 0.97100008 15257554
0.084000006 -0.098000005 0.96800005 14404817
0.086000003 -0.097000003 0.96500003 14142159
0.087000005 -0.097000003 0.96300006 13944523
0.089000002 -0.097000003 0.96300006 13746886
0.091000006 -0.097000003 0.96200007 14009800
0.093000002 -0.097000003 0.96200007 13878214
0.095000006 -0.097000003 0.96300006 13483456
0.097000003 -0.097000003 0.96300006 13548991
0.099000007 -0.097000003 0.96400005 13613757
0.101 -0.097000003 0.96300006 13678522
0.10300001 -0.097000003 0.96400005 13612729
0.105 -0.098000005 0.96600002 13415092
0.10700001 -0.098000005 0.96700007 13217712
0.109 -0.098000005 0.97000003 13086125
0.112 -0.098000005 0.97200006 13151660
0.11400001 -0.099000007 0.97500002 13151404
0.082000002 -0.096000001 0.97300005 14995152
