# .PCD v0.7 - Point Cloud Data file format
VERSION 0.7
FIELDS x y z rgb
SIZE 4 4 4 4
TYPE F F F U
COUNT 1 1 1 1
WIDTH 732
HEIGHT 1
VIEWPOINT 0 0 0 1 0 0 0
POINTS 732
DATA ascii
0.20100001 -0.41900003 0.97000003 9412786
0.20400001 -0.41900003 0.97000003 9346993
0.208 -0.41900003 0.97000003 9149357
0.21000001 -0.41900003 0.97000003 9083305
0.19700001 -0.41600001 0.97000003 10598087
0.19900002 -0.41600001 0.97000003 10466501
0.20100001 -0.41700003 0.97000003 10400194
0.20400001 -0.41700003 0.97100008 10268608
0.20600002 -0.41700003 0.97000003 10202815
0.208 -0.41700003 0.97100008 10268608
0.21000001 -0.41700003 0.97100008 10137536
0.21200001 -0.41800001 0.97100008 10006204
0.21400002 -0.41700003 0.97000003 9414067
0.21000001 -0.41600001 0.97200006 9742778
0.21200001 -0.41600001 0.97200006 9940157
0.215 -0.41600001 0.97300005 10071743
0.21200001 -0.41300002 0.97100008 8624296
0.028000001 -0.126 0.97800004 15005180
0.030000001 -0.126 0.97700006 15005693
0.032000002 -0.126 0.97600007 15071486
0.034000002 -0.126 0.97600007 15202559
0.036000002 -0.126 0.97600007 15202559
0.038000003 -0.126 0.97700006 15136766
0.040000003 -0.126 0.97800004 15202559
0.042000003 -0.126 0.97800004 15202559
0.048 -0.126 0.97900003 15005181
0.050000001 -0.126 0.97900003 15005181
0.018000001 -0.12400001 0.97800004 14478585
0.020000001 -0.12400001 0.97700006 14609657
0.022000002 -0.12400001 0.97500002 14609657
0.024 -0.12400001 0.97400004 14675448
0.026000001 -0.123 0.97300005 14741241
0.028000001 -0.123 0.97200006 14807034
0.030000001 -0.123 0.97100008 14938620
0.032000002 -0.123 0.97000003 15070206
0.034000002 -0.123 0.96900004 15201791
0.036000002 -0.123 0.96900004 15267839
0.038000003 -0.123 0.97100008 15070975
0.040000003 -0.123 0.97200006 14873597
0.042000003 -0.123 0.97300005 14873597
0.044000003 -0.12400001 0.97400004 14939390
0.046000004 -0.12400001 0.97400004 14939390
0.047000002 -0.123 0.97300005 14939390
0.049000002 -0.12400001 0.97400004 14873343
0.052000001 -0.12400001 0.97700006 14939135
0.014 -0.12200001 0.97800004 13952241
0.016000001 -0.12200001 0.97600007 13886448
0.018000001 -0.12200001 0.97400004 13886448
0.020000001 -0.12100001 0.97300005 13886448
0.022000002 -0.12100001 0.97100008 13886448
0.024 -0.12100001 0.97000003 13886448
0.026000001 -0.12100001 0.96800005 13952241
0.028000001 -0.12100001 0.96600002 13952241
0.030000001 -0.12 0.96400005 13952241
0.032000002 -0.12 0.96300006 14083827
0.033 -0.12 0.96300006 14215413
0.035 -0.12 0.96300006 14281204
0.037 -0.12 0.96500003 14215666
0.039000001 -0.12100001 0.96700007 14215665
0.041000001 -0.12100001 0.96800005 14281460
0.043000001 -0.12100001 0.96800005 14413046
0.045000002 -0.12100001 0.96900004 14478839
0.047000002 -0.12100001 0.96800005 14478839
0.049000002 -0.12100001 0.96900004 14478839
0.051000003 -0.12200001 0.97300005 14413303
0.054000001 -0.12200001 0.97900003 14609914
0.014 -0.12 0.97600007 14017005
0.016000001 -0.12 0.97400004 13885932
0.018000001 -0.119 0.97200006 13885932
0.020000001 -0.119 0.97000003 13820139
0.022000002 -0.119 0.96900004 13820139
0.024 -0.119 0.96700007 13754346
0.026000001 -0.119 0.96500003 13688553
0.028000001 -0.11800001 0.96300006 13622761
0.030000001 -0.11800001 0.96200007 13622761
0.031000001 -0.11800001 0.96000004 13622762
0.033 -0.11800001 0.95900005 13622762
0.035 -0.11800001 0.96100003 13622762
0.037 -0.11800001 0.96200007 13623017
0.039000001 -0.11800001 0.96300006 13623017
0.041000001 -0.119 0.96500003 13951725
0.043000001 -0.119 0.96600002 14149361
0.045000002 -0.119 0.96600002 14215155
0.047000002 -0.119 0.96600002 14215155
0.049000002 -0.119 0.96600002 14280948
0.051000003 -0.119 0.97000003 14280948
0.053000003 -0.12 0.97700006 14215411
0.013 -0.11800001 0.97900003 14017005
0.014 -0.11800001 0.97500002 14082798
0.016000001 -0.11800001 0.97300005 13885933
0.018000001 -0.11700001 0.97100008 13820141
0.020000001 -0.11700001 0.97000003 13885421
0.022000002 -0.11700001 0.96800005 13819628
0.024 -0.11700001 0.96700007 13688042
0.026000001 -0.116 0.96400005 13622249
0.028000001 -0.116 0.96100003 13556455
0.030000001 -0.116 0.96000004 13490661
0.031000001 -0.116 0.95900005 13490661
0.033 -0.116 0.95800006 13490661
0.035 -0.116 0.96000004 13556454
0.037 -0.116 0.96100003 13556454
0.039000001 -0.116 0.96200007 13556967
0.041000001 -0.116 0.96400005 13820139
0.043000001 -0.11700001 0.96500003 14017520
0.045000002 -0.11700001 0.96500003 14083313
0.047000002 -0.11700001 0.96500003 14149106
0.049000002 -0.11700001 0.96700007 14214899
0.051000003 -0.11700001 0.97000003 14214899
0.053000003 -0.11800001 0.97700006 14215154
0.014 -0.116 0.97500002 13951725
0.016000001 -0.115 0.97200006 13820141
0.018000001 -0.115 0.97100008 13820141
0.020000001 -0.115 0.97000003 13819628
0.022000002 -0.115 0.96800005 13754092
0.024 -0.115 0.96700007 13688299
0.026000001 -0.115 0.96400005 13622505
0.028000001 -0.11400001 0.96100003 13490663
0.030000001 -0.11400001 0.96000004 13425126
0.031000001 -0.11400001 0.95900005 13425127
0.033 -0.11400001 0.95800006 13490662
0.035 -0.11400001 0.96000004 13425126
0.037 -0.11400001 0.96000004 13490919
0.039000001 -0.11400001 0.96100003 13556712
0.041000001 -0.11400001 0.96300006 13819627
0.043000001 -0.115 0.96400005 14083056
0.045000002 -0.115 0.96500003 14083056
0.047000002 -0.115 0.96500003 14214386
0.049000002 -0.115 0.96700007 14214642
0.051000003 -0.115 0.97100008 14280436
0.054000001 -0.116 0.97800004 14543863
0.014 -0.11400001 0.97600007 13885932
0.016000001 -0.11400001 0.97300005 13820141
0.018000001 -0.11300001 0.97200006 13820141
0.020000001 -0.11300001 0.97000003 13819628
0.022000002 -0.11300001 0.96900004 13819628
0.024 -0.11300001 0.96700007 13688042
0.026000001 -0.11300001 0.96400005 13556456
0.028000001 -0.112 0.96200007 13556456
0.030000001 -0.112 0.96100003 13424870
0.031000001 -0.112 0.95900005 13424870
0.033 -0.112 0.95900005 13490663
0.035 -0.112 0.96000004 13490663
0.037 -0.112 0.96100003 13622249
0.039000001 -0.112 0.96200007 13622249
0.041000001 -0.11300001 0.96400005 13753835
0.043000001 -0.11300001 0.96500003 14017007
0.045000002 -0.11300001 0.96500003 14148593
0.047000002 -0.11300001 0.96700007 14214386
0.049000002 -0.11300001 0.96800005 14280179
0.051000003 -0.11400001 0.97300005 14411765
0.054000001 -0.11400001 0.97900003 14543863
0.014 -0.112 0.97600007 13951469
0.016000001 -0.112 0.97300005 13820141
0.018000001 -0.112 0.97200006 13820141
0.020000001 -0.11100001 0.97100008 13753835
0.022000002 -0.11100001 0.97000003 13819628
0.024 -0.11100001 0.96700007 13688042
0.026000001 -0.11100001 0.96500003 13556456
0.028000001 -0.11100001 0.96300006 13490663
0.030000001 -0.11000001 0.96100003 13490663
0.031000001 -0.11000001 0.96000004 13490663
0.033 -0.11000001 0.95900005 13556456
0.035 -0.11000001 0.96000004 13622249
0.037 -0.11000001 0.96100003 13688042
0.039000001 -0.11000001 0.96200007 13622249
0.041000001 -0.11100001 0.96400005 13688042
0.043000001 -0.11100001 0.96600002 13951214
0.045000002 -0.11100001 0.96700007 14082800
0.047000002 -0.11100001 0.96800005 14214386
0.049000002 -0.11100001 0.97000003 14214386
0.051000003 -0.112 0.97400004 14345972
0.054000001 -0.11300001 0.98000002 14609657
0.014 -0.11000001 0.97800004 13951212
0.016000001 -0.11000001 0.97400004 13820141
0.018000001 -0.11000001 0.97300005 13820141
0.020000001 -0.11000001 0.97200006 13819628
0.022000002 -0.109 0.97100008 13819628
0.024 -0.109 0.96800005 13753835
0.026000001 -0.109 0.96500003 13688042
0.028000001 -0.109 0.96300006 13556456
0.030000001 -0.108 0.96100003 13556456
0.031000001 -0.108 0.95900005 13622249
0.033 -0.108 0.95900005 13688042
0.035 -0.108 0.96100003 13622249
0.037 -0.108 0.96200007 13688042
0.039000001 -0.109 0.96400005 13622249
0.041000001 -0.109 0.96600002 13688042
0.043000001 -0.109 0.96700007 13951214
0.045000002 -0.109 0.96800005 14017007
0.047000002 -0.109 0.97000003 14148593
0.049000002 -0.11000001 0.97200006 14214386
0.051000003 -0.11000001 0.97600007 14411765
0.014 -0.108 0.97800004 13951469
0.016000001 -0.108 0.97400004 13885934
0.018000001 -0.108 0.97200006 13820140
0.020000001 -0.108 0.97200006 13819628
0.022000002 -0.108 0.97100008 13819628
0.024 -0.10700001 0.96800005 13819628
0.026000001 -0.10700001 0.96600002 13753835
0.028000001 -0.10700001 0.96300006 13688042
0.030000001 -0.10700001 0.96200007 13688042
0.031000001 -0.10600001 0.96000004 13688042
0.033 -0.10600001 0.95900005 13688042
0.035 -0.10600001 0.96100003 13753835
0.037 -0.10700001 0.96200007 13753835
0.039000001 -0.10700001 0.96400005 13622506
0.041000001 -0.10700001 0.96500003 13688299
0.043000001 -0.10700001 0.96600002 13885677
0.045000002 -0.10700001 0.96800005 14017007
0.047000002 -0.10700001 0.96900004 14082800
0.049000002 -0.108 0.97100008 14148593
0.051000003 -0.108 0.97600007 14345971
0.014 -0.10600001 0.97900003 14017005
0.016000001 -0.10600001 0.97500002 13885934
0.018000001 -0.10600001 0.97300005 13885675
0.020000001 -0.10600001 0.97200006 13885421
0.022000002 -0.10600001 0.97100008 13885421
0.024 -0.105 0.96800005 13885421
0.026000001 -0.105 0.96600002 13819628
0.028000001 -0.105 0.96300006 13753835
0.030000001 -0.105 0.96100003 13753835
0.031000001 -0.104 0.95900005 13753835
0.033 -0.104 0.95900005 13688042
0.035 -0.105 0.96100003 13688298
0.037 -0.105 0.96300006 13688555
0.039000001 -0.105 0.96400005 13688555
0.041000001 -0.105 0.96500003 13688555
0.043000001 -0.105 0.96700007 13754348
0.045000002 -0.105 0.96800005 13885934
0.047000002 -0.105 0.96900004 13951727
0.049000002 -0.105 0.96900004 14017520
0.051000003 -0.10600001 0.97500002 14149106
0.014 -0.104 0.97900003 13754090
0.016000001 -0.104 0.97500002 13754348
0.018000001 -0.104 0.97300005 13820141
0.020000001 -0.104 0.97200006 13951214
0.022000002 -0.104 0.97100008 13885421
0.024 -0.10300001 0.96800005 13885421
0.026000001 -0.10300001 0.96500003 13885421
0.028000001 -0.10300001 0.96200007 13819628
0.029000001 -0.10200001 0.96000004 13885421
0.031000001 -0.10200001 0.95800006 13885421
0.033 -0.10200001 0.95800006 13951214
0.035 -0.10200001 0.96000004 13951214
0.037 -0.10300001 0.96200007 13885421
0.039000001 -0.10300001 0.96400005 13885421
0.041000001 -0.10300001 0.96500003 13885421
0.043000001 -0.10300001 0.96700007 13951727
0.045000002 -0.10300001 0.96800005 13885934
0.047000002 -0.10300001 0.96800005 13951727
0.049000002 -0.10300001 0.96900004 14017520
0.051000003 -0.104 0.97500002 14083313
0.054000001 -0.105 0.98200005 14280692
0.014 -0.10200001 0.97800004 13490662
0.016000001 -0.10200001 0.97400004 13819884
0.018000001 -0.10200001 0.97100008 13820400
0.020000001 -0.10200001 0.97000003 13885421
0.022000002 -0.101 0.96800005 13951214
0.024 -0.101 0.96600002 13885421
0.026000001 -0.101 0.96300006 13819628
0.028000001 -0.101 0.96000004 13819628
0.029000001 -0.1 0.95800006 13819628
0.031000001 -0.1 0.95700002 13885421
0.033 -0.1 0.95700002 13885421
0.035 -0.1 0.95900005 13885678
0.037 -0.101 0.96100003 13754348
0.039000001 -0.101 0.96300006 13622762
0.041000001 -0.101 0.96400005 13556969
0.043000001 -0.101 0.96600002 13556969
0.045000002 -0.101 0.96700007 13491176
0.047000002 -0.101 0.96700007 13425383
0.049000002 -0.101 0.96800005 13425383
0.051000003 -0.10200001 0.97400004 13688555
0.054000001 -0.10300001 0.98200005 14148850
0.014 -0.1 0.97600007 13621732
0.016000001 -0.1 0.97100008 14083054
0.018000001 -0.099000007 0.96700007 14412278
0.020000001 -0.099000007 0.96400005 14675193
0.022000002 -0.099000007 0.96200007 14674937
0.024 -0.099000007 0.96000004 14740730
0.026000001 -0.098000005 0.95700002 14806523
0.027000001 -0.098000005 0.95600003 14740730
0.029000001 -0.098000005 0.95500004 14740730
0.031000001 -0.098000005 0.95400006 14806523
0.033 -0.098000005 0.95300007 14806523
0.035 -0.098000005 0.95500004 14872316
0.037 -0.098000005 0.95600003 14741243
0.039000001 -0.099000007 0.95900005 14609657
0.041000001 -0.099000007 0.96000004 14609657
0.043000001 -0.099000007 0.96100003 14543864
0.045000002 -0.099000007 0.96200007 14478071
0.047000002 -0.099000007 0.96300006 14411765
0.049000002 -0.099000007 0.96300006 14411765
0.051000003 -0.1 0.97000003 14280179
0.053000003 -0.101 0.97900003 14411249
0.014 -0.098000005 0.97400004 13555938
0.016000001 -0.097000003 0.96700007 14280431
0.018000001 -0.097000003 0.96100003 14872568
0.020000001 -0.096000001 0.95800006 15003900
0.022000002 -0.096000001 0.95500004 14938109
0.024 -0.096000001 0.95400006 14938109
0.025 -0.096000001 0.95200002 14938109
0.027000001 -0.096000001 0.95100003 14938109
0.029000001 -0.096000001 0.94900006 14938109
0.031000001 -0.095000006 0.94800007 14938109
0.033 -0.095000006 0.94800007 14938109
0.035 -0.096000001 0.94900006 14938109
0.037 -0.096000001 0.95000005 14938109
0.039000001 -0.096000001 0.95200002 14938109
0.041000001 -0.096000001 0.95400006 15003902
0.043000001 -0.096000001 0.95500004 15003902
0.045000002 -0.096000001 0.95600003 15003902
0.047000002 -0.096000001 0.95700002 14938109
0.049000002 -0.097000003 0.95800006 14872316
0.051000003 -0.097000003 0.96400005 14872316
0.053000003 -0.098000005 0.97300005 14346485
0.014 -0.096000001 0.97100008 13293536
0.016000001 -0.095000006 0.96300006 14214384
0.018000001 -0.094000004 0.95600003 14872314
0.020000001 -0.094000004 0.95200002 15003901
0.022000002 -0.094000004 0.94900006 14938109
0.023000002 -0.093000002 0.94700003 14938109
0.025 -0.093000002 0.94500005 14938109
0.027000001 -0.093000002 0.94500005 14938109
0.029000001 -0.093000002 0.94400007 14938109
0.031000001 -0.093000002 0.94300002 14938109
0.033 -0.093000002 0.94300002 14872316
0.035 -0.093000002 0.94300002 14872316
0.036000002 -0.093000002 0.94400007 14872316
0.038000003 -0.093000002 0.94400007 14872316
0.040000003 -0.093000002 0.94600004 14938109
0.042000003 -0.094000004 0.94700003 14938109
0.044000003 -0.094000004 0.94800007 15003902
0.046000004 -0.094000004 0.94900006 14938109
0.048 -0.094000004 0.95100003 15003902
0.050000001 -0.094000004 0.95500004 14938109
0.053000003 -0.095000006 0.96500003 14346485
0.055000003 -0.097000003 0.97700006 13622247
0.013 -0.095000006 0.98100007 12898008
0.014 -0.094000004 0.96800005 13227489
0.016000001 -0.093000002 0.95800006 14082798
0.018000001 -0.092000008 0.95100003 14806778
0.020000001 -0.091000006 0.94600004 14938364
0.021000002 -0.091000006 0.94300002 14938109
0.023000002 -0.091000006 0.94200003 14872316
0.025 -0.091000006 0.94000006 14938109
0.027000001 -0.091000006 0.94000006 14938109
0.029000001 -0.091000006 0.94000006 14872316
0.031000001 -0.091000006 0.93900007 14872316
0.033 -0.091000006 0.93900007 14872316
0.034000002 -0.091000006 0.93900007 14872316
0.036000002 -0.091000006 0.93900007 14938109
0.038000003 -0.091000006 0.93900007 14938109
0.040000003 -0.091000006 0.94100004 14938109
0.042000003 -0.091000006 0.94000006 14938109
0.044000003 -0.091000006 0.94100004 15003902
0.046000004 -0.091000006 0.94200003 15003902
0.048 -0.091000006 0.94400007 14938109
0.050000001 -0.092000008 0.94700003 14938109
0.052000001 -0.093000002 0.95600003 14412020
0.055000003 -0.094000004 0.96900004 13622760
0.012 -0.093000002 0.98000002 12897495
0.014 -0.091000006 0.96600002 13161180
0.016000001 -0.091000006 0.95600003 14148075
0.018000001 -0.090000004 0.94800007 15003384
0.020000001 -0.089000002 0.94400007 15003642
0.021000002 -0.089000002 0.94000006 14872316
0.023000002 -0.089000002 0.93900007 14938109
0.025 -0.089000002 0.93800002 14938109
0.027000001 -0.089000002 0.93700004 14938109
0.029000001 -0.089000002 0.93600005 14938109
0.031000001 -0.089000002 0.93600005 14938109
0.032000002 -0.089000002 0.93600005 14872316
0.034000002 -0.089000002 0.93600005 14872316
0.036000002 -0.089000002 0.93600005 14938109
0.038000003 -0.089000002 0.93600005 14938109
0.040000003 -0.089000002 0.93700004 14938109
0.042000003 -0.089000002 0.93600005 14938109
0.044000003 -0.089000002 0.93700004 14872316
0.046000004 -0.089000002 0.93700004 14938109
0.048 -0.089000002 0.93900007 14872316
0.050000001 -0.089000002 0.94100004 14938109
0.052000001 -0.090000004 0.95000005 14412017
0.055000003 -0.091000006 0.96500003 13622245
0.057000004 -0.093000002 0.98100007 10398387
0.012 -0.091000006 0.97900003 12832215
0.014 -0.090000004 0.96600002 13095387
0.016000001 -0.089000002 0.95500004 14148075
0.018000001 -0.088000007 0.94700003 14937592
0.020000001 -0.087000005 0.94300002 14938107
0.021000002 -0.087000005 0.94000006 14872316
0.023000002 -0.087000005 0.93900007 14872316
0.025 -0.087000005 0.93700004 14872316
0.027000001 -0.087000005 0.93700004 14872316
0.029000001 -0.087000005 0.93700004 14872316
0.031000001 -0.087000005 0.93600005 14872316
0.032000002 -0.087000005 0.93600005 14872316
0.034000002 -0.087000005 0.93600005 14872316
0.036000002 -0.087000005 0.93700004 14872316
0.038000003 -0.087000005 0.93600005 14872316
0.040000003 -0.087000005 0.93700004 14872316
0.042000003 -0.087000005 0.93600005 14872316
0.044000003 -0.087000005 0.93600005 14872316
0.046000004 -0.087000005 0.93600005 14872316
0.047000002 -0.087000005 0.93800002 14872316
0.049000002 -0.087000005 0.94000006 14806523
0.052000001 -0.088000007 0.94800007 14609142
0.055000003 -0.089000002 0.96300006 13688296
0.058000002 -0.091000006 0.98200005 10266803
0.012 -0.089000002 0.97900003 12832215
0.014 -0.088000007 0.96500003 12832474
0.016000001 -0.087000005 0.95500004 14016748
0.018000001 -0.086000003 0.94800007 14740728
0.020000001 -0.086000003 0.94300002 14872314
0.021000002 -0.085000001 0.94000006 14740730
0.023000002 -0.085000001 0.93900007 14806523
0.025 -0.085000001 0.93700004 14806523
0.027000001 -0.085000001 0.93600005 14806523
0.029000001 -0.085000001 0.93700004 14806523
0.031000001 -0.085000001 0.93600005 14806523
0.032000002 -0.085000001 0.93600005 14740730
0.034000002 -0.085000001 0.93600005 14740730
0.036000002 -0.085000001 0.93700004 14806523
0.038000003 -0.085000001 0.93600005 14740730
0.040000003 -0.085000001 0.93700004 14740730
0.042000003 -0.085000001 0.93700004 14740730
0.044000003 -0.085000001 0.93600005 14806523
0.046000004 -0.085000001 0.93600005 14806523
0.047000002 -0.085000001 0.93800002 14806523
0.049000002 -0.085000001 0.94000006 14806523
0.052000001 -0.086000003 0.94800007 14412535
0.055000003 -0.088000007 0.96500003 13556968
0.058000002 -0.089000002 0.98300004 9938095
0.012 -0.087000005 0.97900003 12832215
0.014 -0.086000003 0.96500003 12701145
0.016000001 -0.085000001 0.95400006 14017005
0.018000001 -0.084000006 0.94700003 14740984
0.020000001 -0.084000006 0.94300002 14806521
0.021000002 -0.083000004 0.93900007 14740730
0.023000002 -0.083000004 0.93700004 14740730
0.025 -0.083000004 0.93600005 14674937
0.027000001 -0.083000004 0.93500006 14674937
0.029000001 -0.083000004 0.93600005 14740730
0.031000001 -0.083000004 0.93600005 14740730
0.032000002 -0.083000004 0.93600005 14674937
0.034000002 -0.083000004 0.93600005 14674937
0.036000002 -0.083000004 0.93700004 14674937
0.038000003 -0.083000004 0.93700004 14674937
0.040000003 -0.083000004 0.93700004 14674937
0.042000003 -0.083000004 0.93800002 14740730
0.044000003 -0.083000004 0.93700004 14740730
0.046000004 -0.083000004 0.93700004 14740730
0.047000002 -0.083000004 0.93800002 14740730
0.049000002 -0.084000006 0.94100004 14740730
0.052000001 -0.084000006 0.94900006 14215413
0.055000003 -0.086000003 0.96600002 13754862
0.058000002 -0.087000005 0.98400003 8490907
0.012 -0.085000001 0.97900003 12898008
0.014 -0.084000006 0.96500003 12635352
0.016000001 -0.083000004 0.95400006 14017005
0.018000001 -0.082000002 0.94700003 14675191
0.020000001 -0.082000002 0.94300002 14740983
0.021000002 -0.081 0.94000006 14674937
0.023000002 -0.081 0.93800002 14674937
0.025 -0.081 0.93700004 14740730
0.027000001 -0.081 0.93600005 14740730
0.029000001 -0.081 0.93600005 14740730
0.031000001 -0.081 0.93700004 14674937
0.032000002 -0.081 0.93600005 14674937
0.034000002 -0.081 0.93600005 14609144
0.036000002 -0.081 0.93700004 14609144
0.038000003 -0.081 0.93700004 14609144
0.040000003 -0.081 0.93600005 14609144
0.042000003 -0.081 0.93700004 14674937
0.044000003 -0.081 0.93700004 14609144
0.046000004 -0.081 0.93700004 14674937
0.048 -0.081 0.93900007 14674937
0.050000001 -0.082000002 0.94200003 14674937
0.052000001 -0.082000002 0.95000005 14018036
0.055000003 -0.084000006 0.96600002 13952241
0.058000002 -0.085000001 0.98500007 7569805
0.012 -0.083000004 0.97900003 12437715
0.014 -0.082000002 0.96500003 12569559
0.016000001 -0.081 0.95500004 13951213
0.018000001 -0.080000006 0.94900006 14609400
0.020000001 -0.080000006 0.94400007 14543608
0.021000002 -0.080000006 0.94100004 14543351
0.023000002 -0.080000006 0.94000006 14674937
0.025 -0.079000004 0.93800002 14609144
0.027000001 -0.079000004 0.93700004 14609144
0.029000001 -0.079000004 0.93600005 14674937
0.031000001 -0.079000004 0.93600005 14609144
0.032000002 -0.079000004 0.93500006 14609144
0.034000002 -0.079000004 0.93500006 14543351
0.036000002 -0.079000004 0.93600005 14609144
0.038000003 -0.079000004 0.93700004 14609144
0.040000003 -0.079000004 0.93600005 14609144
0.042000003 -0.079000004 0.93800002 14609144
0.044000003 -0.079000004 0.93800002 14543351
0.046000004 -0.079000004 0.93800002 14543351
0.048 -0.080000006 0.94000006 14740730
0.050000001 -0.080000006 0.94300002 14609144
0.052000001 -0.081 0.95100003 13820656
0.055000003 -0.082000002 0.96600002 13556969
0.012 -0.081 0.97900003 12305871
0.014 -0.080000006 0.96500003 12634838
0.016000001 -0.079000004 0.95500004 13819626
0.018000001 -0.078000002 0.94900006 14477556
0.020000001 -0.078000002 0.94500005 14345971
0.021000002 -0.078000002 0.94200003 14411765
0.023000002 -0.078000002 0.94100004 14477558
0.025 -0.078000002 0.93900007 14543351
0.027000001 -0.078000002 0.93800002 14477558
0.029000001 -0.077000007 0.93700004 14477558
0.031000001 -0.077000007 0.93700004 14477558
0.032000002 -0.077000007 0.93600005 14477558
0.034000002 -0.077000007 0.93600005 14477558
0.036000002 -0.077000007 0.93600005 14477558
0.038000003 -0.078000002 0.93700004 14477558
0.040000003 -0.077000007 0.93600005 14477558
0.042000003 -0.078000002 0.93700004 14477558
0.044000003 -0.078000002 0.93700004 14411765
0.046000004 -0.078000002 0.93800002 14411765
0.048 -0.078000002 0.94000006 14543351
0.050000001 -0.078000002 0.94300002 14477558
0.052000001 -0.079000004 0.95100003 13754346
0.055000003 -0.080000006 0.96500003 13490661
0.058000002 -0.082000002 0.98500007 11385541
0.012 -0.079000004 0.97900003 12240078
0.014 -0.078000002 0.96600002 12503766
0.016000001 -0.077000007 0.95500004 13688040
0.018000001 -0.077000007 0.94900006 14411764
0.020000001 -0.076000005 0.94500005 14214386
0.021000002 -0.076000005 0.94200003 14280179
0.023000002 -0.076000005 0.94100004 14345972
0.025 -0.076000005 0.93900007 14345972
0.027000001 -0.076000005 0.93900007 14280179
0.029000001 -0.076000005 0.93800002 14280179
0.031000001 -0.076000005 0.93800002 14280179
0.032000002 -0.076000005 0.93700004 14280179
0.034000002 -0.076000005 0.93700004 14280179
0.036000002 -0.076000005 0.93800002 14280179
0.038000003 -0.076000005 0.93800002 14280179
0.040000003 -0.076000005 0.93700004 14280179
0.042000003 -0.076000005 0.93700004 14280179
0.044000003 -0.076000005 0.93700004 14280179
0.046000004 -0.076000005 0.93800002 14214386
0.047000002 -0.076000005 0.93900007 14411765
0.050000001 -0.076000005 0.94300002 14280179
0.052000001 -0.077000007 0.95000005 13885419
0.055000003 -0.078000002 0.96700007 13227745
0.012 -0.077000007 0.97900003 12239821
0.014 -0.076000005 0.96600002 12437459
0.016000001 -0.075000003 0.95600003 13687783
0.018000001 -0.075000003 0.95000005 14279920
0.020000001 -0.074000001 0.94600004 14148335
0.021000002 -0.074000001 0.94300002 14082800
0.023000002 -0.074000001 0.94300002 14148593
0.025 -0.074000001 0.94100004 14214386
0.027000001 -0.074000001 0.94100004 14148593
0.029000001 -0.074000001 0.94000006 14082800
0.031000001 -0.074000001 0.93900007 14082800
0.032000002 -0.074000001 0.93800002 14082800
0.034000002 -0.074000001 0.93800002 14082800
0.036000002 -0.074000001 0.93800002 14148593
0.038000003 -0.074000001 0.93800002 14148593
0.040000003 -0.074000001 0.93700004 14148593
0.042000003 -0.074000001 0.93700004 14148593
0.044000003 -0.074000001 0.93700004 14148593
0.046000004 -0.074000001 0.93800002 14082800
0.048 -0.074000001 0.94000006 14214386
0.050000001 -0.074000001 0.94400007 14148593
0.052000001 -0.075000003 0.95200002 13556456
0.055000003 -0.076000005 0.96700007 13228002
0.058000002 -0.078000002 0.98600006 9806252
0.012 -0.075000003 0.97800004 12239820
0.014 -0.074000001 0.96600002 12371664
0.016000001 -0.073000006 0.95600003 13621731
0.018000001 -0.073000006 0.95000005 14213868
0.020000001 -0.073000006 0.94600004 14082283
0.021000002 -0.072000004 0.94400007 14082284
0.023000002 -0.072000004 0.94400007 14148077
0.025 -0.072000004 0.94200003 14148078
0.027000001 -0.072000004 0.94200003 14082285
0.029000001 -0.072000004 0.94100004 14017005
0.031000001 -0.072000004 0.94100004 14017007
0.033 -0.072000004 0.94000006 14017007
0.034000002 -0.072000004 0.93900007 14082800
0.036000002 -0.072000004 0.94000006 13885934
0.038000003 -0.072000004 0.93800002 14017520
0.040000003 -0.072000004 0.93800002 14083057
0.042000003 -0.072000004 0.93800002 13951727
0.044000003 -0.072000004 0.93800002 14017005
0.046000004 -0.072000004 0.93900007 13951212
0.048 -0.072000004 0.94100004 14082798
0.050000001 -0.073000006 0.94500005 13951212
0.052000001 -0.073000006 0.95300007 13754087
0.055000003 -0.074000001 0.97000003 13095903
0.012 -0.073000006 0.98000002 11976648
0.014 -0.072000004 0.96700007 12305614
0.016000001 -0.072000004 0.95800006 13490147
0.018000001 -0.071000002 0.95100003 14016491
0.020000001 -0.071000002 0.94800007 14016492
0.021000002 -0.071000002 0.94500005 13884908
0.023000002 -0.071000002 0.94500005 13950701
0.025 -0.07 0.94300002 13884908
0.027000001 -0.07 0.94300002 13884651
0.029000001 -0.07 0.94200003 13819628
0.031000001 -0.07 0.94300002 13753835
0.033 -0.07 0.94100004 13819628
0.034000002 -0.07 0.94100004 13885164
0.036000002 -0.07 0.94100004 13753835
0.038000003 -0.07 0.94000006 13819626
0.040000003 -0.07 0.93900007 13753833
0.042000003 -0.07 0.93900007 13819626
0.044000003 -0.07 0.93900007 13950698
0.046000004 -0.07 0.94000006 13884905
0.048 -0.07 0.94300002 14016491
0.050000001 -0.071000002 0.94700003 13884905
0.052000001 -0.071000002 0.95600003 13621731
0.055000003 -0.073000006 0.97000003 12701399
0.012 -0.071000002 0.98100007 11910855
0.014 -0.07 0.96900004 12305358
0.016000001 -0.07 0.96000004 13358047
0.018000001 -0.069000006 0.95300007 13621733
0.020000001 -0.069000006 0.95100003 13621990
0.022000002 -0.069000006 0.94800007 13490661
0.023000002 -0.069000006 0.94700003 13622247
0.025 -0.069000006 0.94500005 13688040
0.027000001 -0.069000006 0.94500005 13753319
0.029000001 -0.069000006 0.94400007 13687526
0.031000001 -0.069000006 0.94500005 13687524
0.033 -0.069000006 0.94400007 13687524
0.035 -0.069000006 0.94300002 13687524
0.036000002 -0.069000006 0.94300002 13622247
0.038000003 -0.069000006 0.94200003 13688040
0.040000003 -0.068000004 0.94100004 13753833
0.042000003 -0.068000004 0.94000006 13622247
0.044000003 -0.068000004 0.94000006 13753319
0.046000004 -0.068000004 0.94100004 13753317
0.048 -0.069000006 0.94400007 13884903
0.050000001 -0.069000006 0.94800007 13819110
0.052000001 -0.07 0.95800006 13226972
0.055000003 -0.071000002 0.97300005 13226715
0.013 -0.07 0.98500007 11845062
0.014 -0.069000006 0.97400004 12305613
0.016000001 -0.068000004 0.96500003 13029081
0.018000001 -0.068000004 0.95800006 13489632
0.020000001 -0.068000004 0.95600003 13358559
0.022000002 -0.067000002 0.95300007 13358559
0.023000002 -0.067000002 0.95200002 13424352
0.025 -0.067000002 0.95100003 13424352
0.027000001 -0.067000002 0.95000005 13424352
0.029000001 -0.067000002 0.94800007 13227743
0.031000001 -0.067000002 0.94900006 13227743
0.033 -0.067000002 0.94700003 13227489
0.035 -0.067000002 0.94600004 13227489
0.037 -0.067000002 0.94600004 13424354
0.038000003 -0.067000002 0.94500005 13490145
0.040000003 -0.067000002 0.94400007 13490145
0.042000003 -0.067000002 0.94400007 13424352
0.044000003 -0.067000002 0.94400007 13424352
0.046000004 -0.067000002 0.94500005 13490145
0.048 -0.067000002 0.94800007 13621731
0.050000001 -0.067000002 0.95200002 13555938
0.052000001 -0.068000004 0.96200007 13029593
0.055000003 -0.069000006 0.97600007 13424093
0.014 -0.067000002 0.98200005 12963280
0.016000001 -0.067000002 0.97400004 13752796
0.018000001 -0.067000002 0.96800005 14344676
0.020000001 -0.066 0.96500003 14871026
0.022000002 -0.066 0.96200007 14936818
0.024 -0.066 0.96100003 14937076
0.026000001 -0.066 0.96000004 14542576
0.027000001 -0.066 0.95800006 14410735
0.029000001 -0.066 0.95700002 14410735
0.031000001 -0.066 0.95600003 14279405
0.033 -0.066 0.95400006 14082539
0.035 -0.066 0.95300007 14213870
0.037 -0.065000005 0.95200002 14016490
0.039000001 -0.065000005 0.95100003 13819112
0.040000003 -0.065000005 0.95000005 13622247
0.042000003 -0.065000005 0.95000005 13556453
0.044000003 -0.065000005 0.95000005 13556453
0.046000004 -0.065000005 0.95000005 13621990
0.048 -0.065000005 0.95200002 13622503
0.050000001 -0.066 0.95600003 13490917
0.053000003 -0.066 0.96600002 12634064
0.056000002 -0.068000004 0.98200005 11712959
0.016000001 -0.066 0.98400003 4409420
0.018000001 -0.065000005 0.98000002 5001557
0.020000001 -0.065000005 0.97800004 5658974
0.022000002 -0.065000005 0.97600007 6119525
0.024 -0.065000005 0.97600007 6645869
0.026000001 -0.065000005 0.97400004 6909041
0.028000001 -0.065000005 0.97300005 7304056
0.030000001 -0.065000005 0.97100008 7896449
0.032000002 -0.065000005 0.96900004 8488586
0.034000002 -0.065000005 0.96800005 8949138
0.035 -0.065000005 0.96700007 9212568
0.037 -0.064000003 0.96500003 9475997
0.039000001 -0.064000003 0.96300006 9936549
0.041000001 -0.064000003 0.96200007 10660528
0.043000001 -0.064000003 0.96100003 11318458
0.045000002 -0.064000003 0.96100003 11910596
0.047000002 -0.064000003 0.96000004 12436941
0.049000002 -0.064000003 0.96200007 12831699
0.051000003 -0.065000005 0.96700007 12831699
0.053000003 -0.065000005 0.97700006 11581373
0.020000001 -0.064000003 0.98700005 4080457
0.022000002 -0.064000003 0.98600006 3817285
0.024 -0.064000003 0.98600006 3554112
0.026000001 -0.064000003 0.98500007 3290939
0.028000001 -0.064000003 0.98400003 3027767
0.030000001 -0.064000003 0.98300004 3027767
0.032000002 -0.064000003 0.98200005 2567216
0.034000002 -0.064000003 0.98100007 2369837
0.036000002 -0.063000001 0.97900003 2369836
0.038000003 -0.063000001 0.97900003 2369580
0.040000003 -0.063000001 0.97800004 2501166
0.042000003 -0.063000001 0.97600007 2764082
0.043000001 -0.063000001 0.97600007 2830131
0.045000002 -0.063000001 0.97500002 3093304
0.047000002 -0.063000001 0.97400004 3356221
0.049000002 -0.063000001 0.97500002 3948615
0.051000003 -0.063000001 0.97800004 4541008
0.054000001 -0.064000003 0.98700005 4936280
0.042000003 -0.062000003 0.98800004 5198678
0.044000003 -0.062000003 0.98800004 5395801
0.046000004 -0.062000003 0.98700005 5527387
0.048 -0.062000003 0.98600006 5724767
0.050000001 -0.062000003 0.98800004 6382698
