# .PCD v0.7 - Point Cloud Data file format
VERSION 0.7
FIELDS x y z rgb
SIZE 4 4 4 4
TYPE F F F U
COUNT 1 1 1 1
WIDTH 1163
HEIGHT 1
VIEWPOINT 0 0 0 1 0 0 0
POINTS 1163
DATA ascii
-0.027000001 -0.16100001 0.92600006 15685221
-0.025 -0.16100001 0.92500007 15291231
-0.023000002 -0.16100001 0.92500007 15026006
-0.022000002 -0.16100001 0.92600006 16749475
-0.020000001 -0.16100001 0.92600006 16412028
-0.018000001 -0.16100001 0.92700005 15883887
-0.016000001 -0.16100001 0.92800003 13054268
-0.014 -0.16100001 0.92900002 13840960
-0.012 -0.16100001 0.93000007 14696530
-0.010000001 -0.162 0.93100005 14299976
-0.0090000005 -0.162 0.93100005 14365769
-0.0070000002 -0.162 0.93100005 14102595
-0.0050000004 -0.162 0.93100005 14036545
-0.003 -0.162 0.93100005 13839165
-0.001 -0.162 0.93100005 12852783
0.001 -0.162 0.93200004 13840190
0.003 -0.162 0.93200004 15946591
0.0040000002 -0.162 0.93200004 16674166
0.0060000001 -0.162 0.93200004 16346484
0.0080000004 -0.162 0.93200004 14830421
0.010000001 -0.162 0.93300003 13181744
0.012 -0.162 0.93500006 12983598
0.014 -0.163 0.93800002 12655404
0.016000001 -0.163 0.94200003 12655662
0.018000001 -0.16500001 0.95000005 12654635
0.020000001 -0.16700001 0.96200007 12259880
-0.057000004 -0.16500001 0.96100003 16416662
-0.055000003 -0.164 0.95300007 16553636
-0.052000001 -0.163 0.94700003 16685478
-0.050000001 -0.162 0.94300002 16022925
-0.048 -0.16100001 0.94000006 15559551
-0.046000004 -0.16100001 0.93700004 16415115
-0.044000003 -0.16100001 0.93600005 16020869
-0.042000003 -0.16000001 0.93300003 13980002
-0.040000003 -0.16000001 0.93200004 15097966
-0.038000003 -0.16000001 0.93200004 16547211
-0.037 -0.16000001 0.93100005 16748698
-0.035 -0.16000001 0.93000007 16286091
-0.033 -0.15900001 0.92900002 15620459
-0.031000001 -0.15900001 0.92800003 15160161
-0.029000001 -0.15900001 0.92600006 15684710
-0.027000001 -0.15900001 0.92600006 15227241
-0.025 -0.15900001 0.92500007 15226724
-0.023000002 -0.15900001 0.92500007 14961239
-0.022000002 -0.15900001 0.92500007 16752045
-0.020000001 -0.15900001 0.92600006 14435153
-0.018000001 -0.15900001 0.92600006 16744334
-0.016000001 -0.15900001 0.92700005 13316671
-0.014 -0.15900001 0.92900002 13710404
-0.012 -0.15900001 0.92900002 14103878
-0.010000001 -0.15900001 0.93000007 14824779
-0.0090000005 -0.16000001 0.93100005 14562121
-0.0070000002 -0.16000001 0.93100005 14496585
-0.0050000004 -0.15900001 0.93000007 14167874
-0.003 -0.16000001 0.93100005 13576763
-0.001 -0.16000001 0.93100005 14830167
0.001 -0.16000001 0.93100005 16743299
0.003 -0.16000001 0.93200004 16680072
0.0040000002 -0.16000001 0.93300003 16613764
0.0060000001 -0.16000001 0.93200004 16744065
0.0080000004 -0.16000001 0.93300003 16677245
0.010000001 -0.16000001 0.93300003 16676219
0.012 -0.16000001 0.93600005 14237259
0.014 -0.16100001 0.93800002 12390692
0.016000001 -0.162 0.94300002 13048879
0.018000001 -0.163 0.95000005 12524590
0.020000001 -0.16500001 0.96200007 12063016
-0.057000004 -0.163 0.96100003 16482456
-0.055000003 -0.162 0.95300007 16750250
-0.052000001 -0.16100001 0.94800007 16685737
-0.050000001 -0.16000001 0.94300002 15561865
-0.048 -0.16000001 0.94100004 15625602
-0.046000004 -0.15900001 0.93800002 16481678
-0.044000003 -0.15900001 0.93600005 16086148
-0.042000003 -0.15800001 0.93400002 14636135
-0.040000003 -0.15800001 0.93300003 14242659
-0.039000001 -0.15800001 0.93300003 14042968
-0.037 -0.15800001 0.93200004 12725825
-0.035 -0.15800001 0.93100005 13515342
-0.033 -0.15800001 0.93000007 16078444
-0.031000001 -0.15700001 0.92900002 15554922
-0.029000001 -0.15700001 0.92700005 15553380
-0.027000001 -0.15700001 0.92600006 15751014
-0.025 -0.15700001 0.92500007 15357797
-0.023000002 -0.15700001 0.92400002 15027802
-0.021000002 -0.15700001 0.92500007 16751018
-0.020000001 -0.15700001 0.92400002 14435152
-0.018000001 -0.15700001 0.92500007 15690616
-0.016000001 -0.15700001 0.92700005 14237516
-0.014 -0.15700001 0.92800003 13053504
-0.012 -0.15700001 0.92900002 14235720
-0.010000001 -0.15800001 0.93000007 14827344
-0.0090000005 -0.15800001 0.93100005 14300744
-0.0070000002 -0.15800001 0.93100005 14233925
-0.0050000004 -0.15800001 0.93000007 14035518
-0.003 -0.15800001 0.93000007 15549014
-0.001 -0.15800001 0.93000007 16737142
0.001 -0.15800001 0.93100005 15421025
0.003 -0.15800001 0.93100005 13050934
0.0040000002 -0.15800001 0.93300003 12129318
0.0060000001 -0.15800001 0.93300003 11800353
0.0080000004 -0.15800001 0.93400002 13182776
0.010000001 -0.15800001 0.93400002 16739967
0.012 -0.15900001 0.93700004 15883116
0.014 -0.15900001 0.93900007 12063270
0.016000001 -0.16000001 0.94300002 12918579
0.018000001 -0.16100001 0.95000005 12852018
0.020000001 -0.163 0.96100003 12260396
-0.057000004 -0.16100001 0.96200007 16482199
-0.055000003 -0.16000001 0.95500004 16749483
-0.053000003 -0.15900001 0.94900006 16619688
-0.050000001 -0.15800001 0.94400007 15430277
-0.048 -0.15700001 0.94000006 15560577
-0.046000004 -0.15700001 0.93800002 15494526
-0.044000003 -0.15700001 0.93600005 15954306
-0.042000003 -0.156 0.93400002 16018305
-0.040000003 -0.156 0.93300003 15887232
-0.039000001 -0.156 0.93300003 16347269
-0.037 -0.156 0.93200004 16676233
-0.035 -0.156 0.93200004 16148088
-0.033 -0.156 0.93000007 15422566
-0.031000001 -0.155 0.92800003 15618404
-0.029000001 -0.155 0.92700005 15815783
-0.027000001 -0.155 0.92600006 15751015
-0.025 -0.155 0.92400002 15554410
-0.023000002 -0.155 0.92500007 15357024
-0.021000002 -0.155 0.92500007 16750245
-0.020000001 -0.155 0.92500007 15948906
-0.018000001 -0.155 0.92600006 13776451
-0.016000001 -0.155 0.92700005 14895959
-0.014 -0.155 0.92800003 16738940
-0.012 -0.156 0.92900002 15684450
-0.010000001 -0.156 0.93000007 14432329
-0.0090000005 -0.156 0.93000007 13708863
-0.0070000002 -0.156 0.93000007 13971778
-0.0050000004 -0.155 0.92900002 13839678
-0.003 -0.155 0.92900002 14497095
-0.001 -0.156 0.93000007 14562376
0.001 -0.156 0.93100005 13311796
0.003 -0.156 0.93100005 13574968
0.0050000004 -0.156 0.93400002 13838397
0.0060000001 -0.156 0.93400002 13312308
0.0080000004 -0.15700001 0.93500006 12325669
0.010000001 -0.15700001 0.93500006 14300487
0.012 -0.15700001 0.93800002 16540277
0.014 -0.15700001 0.93900007 12458285
0.016000001 -0.15800001 0.94400007 13115701
0.018000001 -0.15900001 0.95000005 12654895
0.020000001 -0.16100001 0.96200007 12259881
-0.057000004 -0.16000001 0.96400005 16678807
-0.055000003 -0.15800001 0.95500004 16746915
-0.053000003 -0.15700001 0.95000005 16749993
-0.050000001 -0.156 0.94500005 16548504
-0.048 -0.156 0.94100004 15559295
-0.046000004 -0.155 0.93900007 15492473
-0.044000003 -0.155 0.93700004 15427193
-0.042000003 -0.155 0.93500006 15954051
-0.040000003 -0.155 0.93400002 15822466
-0.039000001 -0.15400001 0.93300003 15490934
-0.037 -0.15400001 0.93200004 14961765
-0.035 -0.15400001 0.93100005 15815531
-0.033 -0.15400001 0.92900002 15750250
-0.031000001 -0.15300001 0.92800003 15882605
-0.029000001 -0.15300001 0.92800003 15948655
-0.027000001 -0.15300001 0.92600006 16013934
-0.025 -0.15300001 0.92600006 16013164
-0.023000002 -0.15300001 0.92500007 15487331
-0.021000002 -0.15300001 0.92500007 16749727
-0.020000001 -0.15300001 0.92500007 16151938
-0.018000001 -0.15300001 0.92600006 13710914
-0.016000001 -0.15300001 0.92600006 13448769
-0.014 -0.15300001 0.92700005 13314363
-0.012 -0.15400001 0.92900002 13576763
-0.010000001 -0.15300001 0.92800003 13709376
-0.0090000005 -0.15400001 0.92900002 13906755
-0.0070000002 -0.15400001 0.92900002 14038084
-0.0050000004 -0.15300001 0.92800003 13577277
-0.003 -0.15300001 0.92800003 13511227
-0.001 -0.15400001 0.92900002 13445177
0.001 -0.15400001 0.93100005 13510714
0.003 -0.15400001 0.93200004 13510713
0.0050000004 -0.15400001 0.93400002 13444664
0.0060000001 -0.15400001 0.93400002 13116211
0.0080000004 -0.155 0.93600005 12459051
0.010000001 -0.155 0.93600005 12195366
0.012 -0.155 0.93800002 16737912
0.014 -0.155 0.93900007 12855610
0.016000001 -0.156 0.94400007 12852531
0.018000001 -0.15700001 0.95000005 12589358
0.020000001 -0.15900001 0.96200007 12325417
-0.057000004 -0.15800001 0.96600002 16679061
-0.055000003 -0.156 0.95700002 16484250
-0.053000003 -0.155 0.95000005 16618663
-0.050000001 -0.15400001 0.94500005 16752304
-0.048 -0.15400001 0.94000006 16023959
-0.046000004 -0.15300001 0.93700004 15493760
-0.044000003 -0.15300001 0.93500006 15294065
-0.042000003 -0.15300001 0.93400002 15358572
-0.040000003 -0.15200001 0.93300003 15885174
-0.038000003 -0.15200001 0.93200004 16742023
-0.037 -0.15200001 0.93200004 16678029
-0.035 -0.15200001 0.93100005 16347012
-0.033 -0.15200001 0.92900002 16147065
-0.031000001 -0.15200001 0.92800003 16079731
-0.029000001 -0.15100001 0.92700005 15751277
-0.027000001 -0.15100001 0.92600006 15751789
-0.025 -0.15100001 0.92600006 15554153
-0.023000002 -0.15100001 0.92500007 15487077
-0.022000002 -0.15100001 0.92600006 16610687
-0.020000001 -0.15100001 0.92500007 16617117
-0.018000001 -0.15100001 0.92600006 13973574
-0.016000001 -0.15100001 0.92600006 14432580
-0.014 -0.15100001 0.92700005 14104136
-0.012 -0.15200001 0.92800003 13973064
-0.010000001 -0.15200001 0.92800003 14235720
-0.0090000005 -0.15200001 0.92900002 14235719
-0.0070000002 -0.15200001 0.92900002 13906497
-0.0050000004 -0.15200001 0.92900002 13577275
-0.003 -0.15200001 0.92900002 13445433
-0.001 -0.15200001 0.92900002 13576506
0.001 -0.15200001 0.93100005 13641786
0.003 -0.15200001 0.93100005 13575993
0.0050000004 -0.15300001 0.93400002 13246771
0.0060000001 -0.15300001 0.93500006 13049135
0.0080000004 -0.15300001 0.93700004 12655147
0.010000001 -0.15300001 0.93800002 12458025
0.012 -0.15400001 0.94000006 15550553
0.014 -0.15400001 0.94100004 13248312
0.016000001 -0.15400001 0.94500005 12721199
0.018000001 -0.155 0.95100003 12785966
0.020000001 -0.15700001 0.96200007 12390697
-0.057000004 -0.156 0.96700007 16745111
-0.055000003 -0.15400001 0.95600003 16680084
-0.052000001 -0.15300001 0.94900006 16286360
-0.050000001 -0.15200001 0.94400007 16423599
-0.048 -0.15200001 0.94000006 16622266
-0.046000004 -0.15100001 0.93800002 16755650
-0.044000003 -0.15100001 0.93600005 16756673
-0.042000003 -0.15100001 0.93500006 16756670
-0.040000003 -0.15100001 0.93300003 16752560
-0.038000003 -0.15000001 0.93200004 16419485
-0.037 -0.15000001 0.93100005 15954054
-0.035 -0.15000001 0.93000007 15358575
-0.033 -0.15000001 0.92900002 15226216
-0.031000001 -0.15000001 0.92700005 15620460
-0.029000001 -0.15000001 0.92700005 15224675
-0.027000001 -0.149 0.92600006 15816042
-0.025 -0.149 0.92600006 15946599
-0.023000002 -0.149 0.92600006 15684454
-0.022000002 -0.15000001 0.92700005 15422048
-0.020000001 -0.15000001 0.92700005 16753326
-0.018000001 -0.15000001 0.92800003 16347514
-0.016000001 -0.15000001 0.92700005 13510709
-0.014 -0.15000001 0.92700005 13314619
-0.012 -0.15000001 0.92800003 13379643
-0.010000001 -0.15000001 0.92800003 13709374
-0.0090000005 -0.15000001 0.92800003 14564169
-0.0070000002 -0.15000001 0.92800003 14103106
-0.0050000004 -0.15000001 0.92800003 13510969
-0.003 -0.15000001 0.92800003 13576506
-0.001 -0.15000001 0.92900002 13641530
0.001 -0.15000001 0.93100005 13706809
0.003 -0.15000001 0.93200004 13311795
0.0050000004 -0.15100001 0.93500006 12917035
0.0060000001 -0.15100001 0.93700004 12850985
0.0080000004 -0.15100001 0.93900007 12851757
0.010000001 -0.15100001 0.93900007 12589868
0.012 -0.15200001 0.94000006 13182004
0.014 -0.15200001 0.94200003 13114158
0.016000001 -0.15200001 0.94500005 12984112
0.018000001 -0.15300001 0.95100003 12785964
0.020000001 -0.155 0.96100003 12390696
-0.057000004 -0.15400001 0.96600002 16618405
-0.055000003 -0.15200001 0.95500004 16549532
-0.052000001 -0.15100001 0.94900006 16021388
-0.050000001 -0.15000001 0.94300002 16021131
-0.048 -0.15000001 0.93900007 16086924
-0.046000004 -0.149 0.93600005 16020617
-0.044000003 -0.149 0.93400002 16019333
-0.042000003 -0.149 0.93300003 16084354
-0.040000003 -0.148 0.93100005 15430013
-0.038000003 -0.148 0.93000007 15689590
-0.036000002 -0.148 0.92900002 15885172
-0.035 -0.148 0.92800003 16084094
-0.033 -0.148 0.92800003 16743307
-0.031000001 -0.148 0.92700005 16279160
-0.029000001 -0.147 0.92600006 15619432
-0.027000001 -0.147 0.92600006 16014703
-0.025 -0.147 0.92600006 16079464
-0.023000002 -0.147 0.92600006 15422046
-0.021000002 -0.147 0.92600006 13777997
-0.020000001 -0.148 0.92700005 16609155
-0.018000001 -0.148 0.92800003 16682393
-0.016000001 -0.148 0.92800003 16751004
-0.014 -0.148 0.92800003 16014955
-0.012 -0.148 0.92900002 16278386
-0.010000001 -0.148 0.92800003 16739451
-0.0090000005 -0.148 0.92800003 15945825
-0.0070000002 -0.148 0.92800003 14102338
-0.0050000004 -0.148 0.92800003 14102081
-0.003 -0.148 0.92800003 14035261
-0.001 -0.148 0.93000007 13837111
0.001 -0.148 0.93100005 13377843
0.003 -0.149 0.93300003 12655403
0.0050000004 -0.149 0.93500006 12852527
0.0060000001 -0.149 0.93700004 12456999
0.0080000004 -0.15000001 0.93900007 12259362
0.010000001 -0.15000001 0.93900007 12983087
0.012 -0.15000001 0.94000006 12391207
0.014 -0.15000001 0.94300002 12851245
0.016000001 -0.15100001 0.94600004 13180465
0.018000001 -0.15100001 0.95100003 12589356
0.020000001 -0.15300001 0.96100003 11996711
-0.057000004 -0.15200001 0.96700007 16686512
-0.055000003 -0.15000001 0.95400006 16618407
-0.052000001 -0.149 0.94800007 16221078
-0.050000001 -0.148 0.94200003 16286355
-0.048 -0.148 0.93900007 16220047
-0.046000004 -0.147 0.93500006 16284810
-0.044000003 -0.147 0.93400002 16349574
-0.042000003 -0.147 0.93200004 16414340
-0.040000003 -0.14600001 0.93000007 16610176
-0.038000003 -0.14600001 0.92900002 16477565
-0.036000002 -0.14600001 0.92800003 15950966
-0.035 -0.14600001 0.92700005 16478339
-0.033 -0.14600001 0.92700005 15491955
-0.031000001 -0.14600001 0.92700005 14370906
-0.029000001 -0.14600001 0.92600006 16476282
-0.027000001 -0.14500001 0.92500007 16543358
-0.025 -0.14600001 0.92600006 15817834
-0.023000002 -0.14500001 0.92500007 15356259
-0.021000002 -0.14600001 0.92600006 15028575
-0.020000001 -0.14600001 0.92700005 14763859
-0.018000001 -0.14600001 0.92800003 16142436
-0.016000001 -0.14600001 0.92800003 16416911
-0.014 -0.14600001 0.92700005 16747422
-0.012 -0.14600001 0.92900002 16679575
-0.010000001 -0.14600001 0.92900002 16607355
-0.0090000005 -0.14600001 0.92800003 14103368
-0.0070000002 -0.14600001 0.92800003 13970498
-0.0050000004 -0.14600001 0.92900002 13970497
-0.003 -0.14600001 0.92900002 13707325
-0.001 -0.14600001 0.93000007 15617118
0.001 -0.14600001 0.93100005 16742018
0.003 -0.147 0.93300003 16743811
0.0050000004 -0.147 0.93500006 16677250
0.0060000001 -0.147 0.93700004 16410743
0.0080000004 -0.147 0.93800002 12263218
0.010000001 -0.148 0.93900007 11865893
0.012 -0.148 0.94000006 12785199
0.014 -0.148 0.94300002 12850735
0.016000001 -0.149 0.94600004 12850991
0.018000001 -0.15000001 0.95100003 12522283
0.020000001 -0.15100001 0.96100003 12127782
-0.057000004 -0.15000001 0.96500003 16682654
-0.055000003 -0.148 0.95400006 16747165
-0.052000001 -0.147 0.94700003 16679831
-0.050000001 -0.14600001 0.94100004 16548245
-0.048 -0.14600001 0.93900007 16481937
-0.046000004 -0.14500001 0.93500006 16415373
-0.044000003 -0.14500001 0.93300003 16349324
-0.042000003 -0.14500001 0.93100005 16283531
-0.040000003 -0.14400001 0.93000007 16347529
-0.038000003 -0.14400001 0.92800003 16281221
-0.036000002 -0.14400001 0.92800003 15425651
-0.035 -0.14400001 0.92700005 14766948
-0.033 -0.14400001 0.92800003 13910094
-0.031000001 -0.14400001 0.92700005 15619942
-0.029000001 -0.14400001 0.92600006 16608123
-0.027000001 -0.14400001 0.92500007 16742276
-0.025 -0.14400001 0.92600006 15818089
-0.023000002 -0.14400001 0.92500007 15552611
-0.021000002 -0.14400001 0.92600006 15354717
-0.020000001 -0.14400001 0.92700005 15290460
-0.018000001 -0.14400001 0.92800003 14957902
-0.016000001 -0.14400001 0.92800003 13116728
-0.014 -0.14400001 0.92800003 13312056
-0.012 -0.14400001 0.92800003 12524847
-0.010000001 -0.14400001 0.92900002 13576765
-0.0090000005 -0.14400001 0.92800003 14167363
-0.0070000002 -0.14400001 0.92800003 14036032
-0.0050000004 -0.14400001 0.92900002 13641530
-0.003 -0.14400001 0.92900002 14825291
-0.001 -0.14400001 0.93000007 14826317
0.001 -0.14500001 0.93200004 11736869
0.003 -0.14500001 0.93300003 10817049
0.0050000004 -0.14500001 0.93500006 11079967
0.0060000001 -0.14500001 0.93600005 15159909
0.0080000004 -0.14500001 0.93700004 16409979
0.010000001 -0.14600001 0.93900007 12852790
0.012 -0.14600001 0.94000006 12785457
0.014 -0.14600001 0.94300002 12784944
0.016000001 -0.147 0.94600004 12588078
0.018000001 -0.148 0.95200002 12193578
0.020000001 -0.149 0.96300006 12061477
-0.057000004 -0.148 0.96600002 16553639
-0.055000003 -0.14600001 0.95300007 16484252
-0.052000001 -0.14500001 0.94700003 16549274
-0.050000001 -0.14400001 0.94100004 16548760
-0.048 -0.14400001 0.93900007 16416146
-0.046000004 -0.14300001 0.93600005 16480655
-0.044000003 -0.14300001 0.93500006 16413579
-0.042000003 -0.14300001 0.93200004 16215685
-0.040000003 -0.142 0.93000007 15887226
-0.038000003 -0.142 0.92800003 15886715
-0.036000002 -0.142 0.92700005 15359858
-0.034000002 -0.142 0.92600006 14766694
-0.033 -0.142 0.92600006 16477060
-0.031000001 -0.142 0.92600006 16738946
-0.029000001 -0.142 0.92500007 16742283
-0.027000001 -0.142 0.92500007 16414081
-0.025 -0.142 0.92500007 15093343
-0.023000002 -0.142 0.92500007 15486557
-0.021000002 -0.142 0.92500007 15158617
-0.020000001 -0.142 0.92700005 14829140
-0.018000001 -0.142 0.92900002 15023952
-0.016000001 -0.142 0.92900002 14761037
-0.014 -0.142 0.92900002 15022417
-0.012 -0.142 0.92800003 14757963
-0.010000001 -0.142 0.92900002 14168905
-0.0090000005 -0.142 0.92800003 13971013
-0.0070000002 -0.142 0.92700005 13970499
-0.0050000004 -0.142 0.92800003 13640764
-0.003 -0.142 0.92900002 14165310
-0.001 -0.14300001 0.93100005 14362944
0.001 -0.14300001 0.93200004 13377589
0.003 -0.14300001 0.93300003 13246003
0.0050000004 -0.14300001 0.93500006 13113390
0.0060000001 -0.14300001 0.93600005 12324388
0.0080000004 -0.14300001 0.93700004 15944545
0.010000001 -0.14400001 0.93800002 14365255
0.012 -0.14400001 0.93900007 12390439
0.014 -0.14400001 0.94200003 12719405
0.016000001 -0.14500001 0.94600004 12390954
0.018000001 -0.14600001 0.95200002 12127782
0.020000001 -0.148 0.96500003 12257831
-0.057000004 -0.14600001 0.96500003 16555179
-0.055000003 -0.14400001 0.95300007 16288156
-0.052000001 -0.14300001 0.94600004 16352666
-0.050000001 -0.142 0.94000006 16417944
-0.048 -0.142 0.93900007 16416916
-0.046000004 -0.142 0.93600005 16415888
-0.044000003 -0.141 0.93400002 16217481
-0.042000003 -0.141 0.93100005 15756417
-0.040000003 -0.14 0.92900002 15756166
-0.038000003 -0.14 0.92800003 14833767
-0.036000002 -0.14 0.92600006 14900841
-0.034000002 -0.14 0.92500007 16412801
-0.033 -0.14 0.92600006 16216444
-0.031000001 -0.14 0.92600006 15750250
-0.029000001 -0.14 0.92600006 16745880
-0.027000001 -0.14 0.92500007 16279673
-0.025 -0.14 0.92500007 14567256
-0.023000002 -0.14 0.92600006 14960218
-0.021000002 -0.14 0.92600006 14828886
-0.020000001 -0.14 0.92700005 14302284
-0.018000001 -0.14 0.92900002 14629454
-0.016000001 -0.141 0.93000007 14956623
-0.014 -0.14 0.92900002 15086410
-0.012 -0.14 0.92900002 14561604
-0.010000001 -0.141 0.93000007 14102594
-0.0090000005 -0.141 0.93000007 13905217
-0.0070000002 -0.14 0.92900002 13707581
-0.0050000004 -0.141 0.93000007 13509431
-0.003 -0.141 0.93100005 13509173
-0.001 -0.141 0.93200004 13508662
0.001 -0.141 0.93200004 13508406
0.003 -0.141 0.93300003 13507893
0.0040000002 -0.141 0.93400002 13376564
0.0060000001 -0.141 0.93500006 12588845
0.0080000004 -0.141 0.93600005 14367311
0.010000001 -0.141 0.93600005 15091291
0.012 -0.142 0.93900007 12062247
0.014 -0.142 0.94300002 12784688
0.016000001 -0.14300001 0.94700003 12455466
0.018000001 -0.14400001 0.95500004 12061479
0.020000001 -0.14600001 0.96700007 12125991
-0.057000004 -0.14400001 0.96400005 16420769
-0.054000001 -0.142 0.95200002 16418714
-0.052000001 -0.141 0.94700003 16483480
-0.050000001 -0.14 0.94100004 16417430
-0.048 -0.14 0.93900007 16416657
-0.046000004 -0.14 0.93600005 16415886
-0.044000003 -0.13900001 0.93400002 15822723
-0.042000003 -0.13900001 0.93100005 15492987
-0.040000003 -0.13900001 0.93000007 16545418
-0.038000003 -0.13800001 0.92800003 16479885
-0.036000002 -0.13800001 0.92700005 16414595
-0.034000002 -0.13800001 0.92600006 15819637
-0.033 -0.13800001 0.92600006 14173272
-0.031000001 -0.13800001 0.92600006 16480911
-0.029000001 -0.13800001 0.92600006 16616349
-0.027000001 -0.13800001 0.92500007 14171728
-0.025 -0.13800001 0.92700005 14041937
-0.023000002 -0.13800001 0.92700005 15950190
-0.021000002 -0.13800001 0.92700005 15886709
-0.020000001 -0.13800001 0.92700005 15551839
-0.018000001 -0.13800001 0.92900002 15022413
-0.016000001 -0.13900001 0.93000007 14234180
-0.014 -0.13900001 0.93000007 15152717
-0.012 -0.13800001 0.92900002 14694732
-0.010000001 -0.13900001 0.93000007 13707325
-0.0090000005 -0.13900001 0.93000007 13838911
-0.0070000002 -0.13800001 0.92900002 13641532
-0.0050000004 -0.13900001 0.93000007 13575226
-0.003 -0.13900001 0.93100005 13574456
-0.001 -0.13900001 0.93200004 13508149
0.001 -0.13900001 0.93200004 13442357
0.003 -0.13900001 0.93300003 13310771
0.0040000002 -0.13900001 0.93400002 13244978
0.0060000001 -0.13900001 0.93400002 12784940
0.0080000004 -0.13900001 0.93500006 13443897
0.010000001 -0.14 0.93600005 14957652
0.012 -0.14 0.93900007 12259113
0.014 -0.14 0.94200003 12522029
0.016000001 -0.141 0.94600004 12193065
0.018000001 -0.142 0.95400006 11799078
0.020000001 -0.14400001 0.96900004 11929895
-0.057000004 -0.141 0.96100003 16222110
-0.054000001 -0.14 0.95000005 16287388
-0.052000001 -0.13900001 0.94600004 16352153
-0.050000001 -0.13800001 0.94100004 16286101
-0.048 -0.13800001 0.93800002 16154514
-0.046000004 -0.13800001 0.93600005 16614296
-0.044000003 -0.13700001 0.93300003 16283276
-0.042000003 -0.13700001 0.93000007 15558012
-0.040000003 -0.13700001 0.92900002 15557239
-0.038000003 -0.13700001 0.92900002 14637673
-0.036000002 -0.13600001 0.92700005 14045026
-0.034000002 -0.13600001 0.92600006 14435416
-0.033 -0.13600001 0.92600006 16150406
-0.031000001 -0.13600001 0.92700005 16490412
-0.029000001 -0.13600001 0.92600006 15948652
-0.027000001 -0.13600001 0.92600006 14631768
-0.025 -0.13600001 0.92700005 16342900
-0.023000002 -0.13600001 0.92700005 16744076
-0.021000002 -0.13600001 0.92700005 16475513
-0.020000001 -0.13600001 0.92700005 16014704
-0.018000001 -0.13600001 0.92800003 16604274
-0.016000001 -0.13700001 0.92900002 16339818
-0.014 -0.13700001 0.92900002 16608379
-0.012 -0.13600001 0.92800003 16542586
-0.010000001 -0.13700001 0.93000007 16209258
-0.0090000005 -0.13700001 0.93000007 13904704
-0.0070000002 -0.13700001 0.93000007 13575482
-0.0050000004 -0.13700001 0.93100005 13377591
-0.003 -0.13700001 0.93200004 13377079
-0.001 -0.13700001 0.93300003 13376308
0.001 -0.13700001 0.93200004 13244466
0.003 -0.13700001 0.93300003 13112880
0.0040000002 -0.13700001 0.93400002 13112879
0.0060000001 -0.13700001 0.93500006 12784171
0.0080000004 -0.13700001 0.93500006 12784428
0.010000001 -0.13800001 0.93700004 12916785
0.012 -0.13800001 0.94000006 12390956
0.014 -0.13900001 0.94400007 12324650
0.016000001 -0.14 0.94900006 12061737
0.018000001 -0.141 0.95900005 11668519
0.020000001 -0.14300001 0.97200006 11799079
-0.060000002 -0.141 0.97200006 16157085
-0.057000004 -0.13900001 0.95900005 16222109
-0.054000001 -0.13800001 0.94900006 16287131
-0.052000001 -0.13700001 0.94300002 16352665
-0.050000001 -0.13600001 0.93900007 16221078
-0.048 -0.13600001 0.93700004 16352663
-0.046000004 -0.13600001 0.93400002 16747165
-0.044000003 -0.13500001 0.93100005 16612496
-0.042000003 -0.13500001 0.93000007 16018047
-0.040000003 -0.13500001 0.92800003 15820410
-0.038000003 -0.13500001 0.92800003 15358323
-0.036000002 -0.134 0.92700005 15292005
-0.034000002 -0.134 0.92600006 16017792
-0.033 -0.134 0.92600006 16359087
-0.031000001 -0.134 0.92700005 16347781
-0.029000001 -0.134 0.92600006 14435926
-0.027000001 -0.134 0.92600006 14959193
-0.025 -0.134 0.92700005 16676743
-0.023000002 -0.134 0.92700005 16740993
-0.021000002 -0.134 0.92700005 14564945
-0.020000001 -0.134 0.92700005 14234955
-0.018000001 -0.13500001 0.92800003 15220824
-0.016000001 -0.13500001 0.92800003 15088209
-0.014 -0.13500001 0.92800003 14365253
-0.012 -0.13500001 0.92900002 14431303
-0.010000001 -0.13500001 0.93000007 16604274
-0.0090000005 -0.13500001 0.93100005 14891600
-0.0070000002 -0.13500001 0.93000007 13509176
-0.0050000004 -0.13500001 0.93200004 13377335
-0.003 -0.13500001 0.93200004 13377079
-0.001 -0.13500001 0.93300003 13508152
0.001 -0.13500001 0.93200004 13770554
0.003 -0.13500001 0.93300003 14033470
0.0040000002 -0.13500001 0.93400002 14033214
0.0060000001 -0.13600001 0.93500006 13309490
0.0080000004 -0.13600001 0.93600005 12718381
0.010000001 -0.13600001 0.93800002 12522029
0.012 -0.13600001 0.94100004 12522029
0.014 -0.13700001 0.94500005 12521003
0.016000001 -0.13800001 0.95000005 12258088
0.018000001 -0.13900001 0.95900005 11602726
0.020000001 -0.141 0.97000003 11733286
-0.057000004 -0.13700001 0.95900005 16092059
-0.054000001 -0.13600001 0.94900006 16549529
-0.052000001 -0.13500001 0.94200003 16679831
-0.050000001 -0.134 0.93900007 16481682
-0.048 -0.134 0.93500006 16680345
-0.046000004 -0.133 0.93200004 16748964
-0.044000003 -0.133 0.92900002 16220050
-0.042000003 -0.133 0.92800003 14967158
-0.040000003 -0.133 0.92700005 15426675
-0.038000003 -0.133 0.92800003 16280446
-0.036000002 -0.133 0.92700005 16283017
-0.034000002 -0.133 0.92700005 16682914
-0.033 -0.132 0.92600006 15890828
-0.031000001 -0.133 0.92800003 15028325
-0.029000001 -0.132 0.92600006 15682141
-0.027000001 -0.133 0.92700005 15091030
-0.025 -0.133 0.92700005 16275052
-0.023000002 -0.133 0.92800003 16473712
-0.022000002 -0.133 0.92800003 15023179
-0.020000001 -0.133 0.92800003 14564167
-0.018000001 -0.133 0.92800003 14497607
-0.016000001 -0.133 0.92800003 14562121
-0.014 -0.133 0.92800003 14037061
-0.012 -0.133 0.92900002 13508404
-0.010000001 -0.133 0.93000007 16015985
-0.0090000005 -0.133 0.93100005 15023699
-0.0070000002 -0.133 0.93100005 13836088
-0.0050000004 -0.133 0.93200004 13507638
-0.003 -0.133 0.93300003 13376052
-0.001 -0.133 0.93300003 13704504
0.001 -0.133 0.93200004 13902140
0.003 -0.134 0.93400002 14428484
0.0040000002 -0.134 0.93500006 14757193
0.0060000001 -0.134 0.93600005 14033727
0.0080000004 -0.134 0.93600005 13046833
0.010000001 -0.134 0.93900007 12718125
0.012 -0.13500001 0.94100004 12718638
0.014 -0.13500001 0.94600004 12456236
0.016000001 -0.13600001 0.95100003 12127272
0.018000001 -0.13700001 0.96000004 11995686
0.020000001 -0.13900001 0.97000003 11930154
-0.059000004 -0.13700001 0.97100008 16418970
-0.057000004 -0.13500001 0.95700002 16549788
-0.054000001 -0.134 0.94800007 16549020
-0.052000001 -0.133 0.94200003 16679834
-0.050000001 -0.132 0.93800002 16481428
-0.048 -0.132 0.93500006 16350099
-0.046000004 -0.13100001 0.93200004 16747939
-0.044000003 -0.13100001 0.93000007 16750506
-0.042000003 -0.13100001 0.92900002 16292007
-0.040000003 -0.13100001 0.92800003 16684200
-0.038000003 -0.13100001 0.92800003 16157854
-0.036000002 -0.13100001 0.92800003 16220564
-0.034000002 -0.13100001 0.92600006 16150147
-0.033 -0.13100001 0.92600006 15290984
-0.031000001 -0.13100001 0.92700005 15486819
-0.029000001 -0.13100001 0.92600006 15749220
-0.027000001 -0.13100001 0.92700005 15748708
-0.025 -0.13100001 0.92800003 16011365
-0.023000002 -0.13100001 0.92800003 15881057
-0.022000002 -0.13100001 0.92800003 14958154
-0.020000001 -0.13100001 0.92800003 15287888
-0.018000001 -0.13100001 0.92800003 14630732
-0.016000001 -0.13100001 0.92800003 14563405
-0.014 -0.13100001 0.92800003 13970754
-0.012 -0.13100001 0.92900002 13378103
-0.010000001 -0.13100001 0.93000007 16079980
-0.0090000005 -0.13100001 0.93100005 14562891
-0.0070000002 -0.13100001 0.93200004 13638965
-0.0050000004 -0.13100001 0.93200004 13376052
-0.003 -0.132 0.93300003 13244723
-0.001 -0.132 0.93300003 13376052
0.001 -0.132 0.93300003 13375796
0.003 -0.132 0.93400002 13375797
0.0040000002 -0.132 0.93500006 13967934
0.0060000001 -0.132 0.93600005 14099775
0.0080000004 -0.132 0.93700004 13178673
0.010000001 -0.132 0.93900007 12718380
0.012 -0.133 0.94200003 12915760
0.014 -0.133 0.94600004 12718638
0.016000001 -0.134 0.95000005 12389674
0.018000001 -0.13500001 0.95900005 11995686
0.020000001 -0.13600001 0.96700007 11995431
-0.059000004 -0.13500001 0.96900004 16549529
-0.057000004 -0.133 0.95600003 16680601
-0.054000001 -0.132 0.94700003 16614810
-0.052000001 -0.13100001 0.94000006 16549017
-0.050000001 -0.13000001 0.93600005 16548247
-0.048 -0.13000001 0.93400002 16283277
-0.046000004 -0.12900001 0.93100005 16282251
-0.044000003 -0.12900001 0.93000007 16350613
-0.042000003 -0.12900001 0.92900002 16288672
-0.040000003 -0.12900001 0.92800003 15893917
-0.038000003 -0.12900001 0.92800003 15954313
-0.036000002 -0.12900001 0.92800003 16014708
-0.034000002 -0.12900001 0.92700005 15881319
-0.033 -0.12900001 0.92600006 15947111
-0.031000001 -0.12900001 0.92700005 15814244
-0.029000001 -0.12900001 0.92600006 15748708
-0.027000001 -0.12900001 0.92700005 16275562
-0.025 -0.12900001 0.92700005 16405866
-0.023000002 -0.12900001 0.92800003 15221587
-0.021000002 -0.12900001 0.92800003 13840960
-0.020000001 -0.12900001 0.92900002 16674427
-0.018000001 -0.12900001 0.92900002 16746644
-0.016000001 -0.12900001 0.92900002 16745619
-0.014 -0.12900001 0.92900002 14960216
-0.012 -0.12900001 0.92900002 13969977
-0.010000001 -0.12900001 0.93100005 14496839
-0.0090000005 -0.12900001 0.93100005 14758986
-0.0070000002 -0.12900001 0.93200004 13967931
-0.0050000004 -0.13000001 0.93300003 13573172
-0.003 -0.13000001 0.93300003 13179186
-0.001 -0.13000001 0.93300003 13113136
0.001 -0.13000001 0.93300003 13375283
0.003 -0.13000001 0.93400002 13309491
0.0040000002 -0.13000001 0.93400002 13375796
0.0060000001 -0.13000001 0.93600005 13638968
0.0080000004 -0.13000001 0.93700004 13178673
0.010000001 -0.13000001 0.93900007 12915758
0.012 -0.13100001 0.94200003 13310518
0.014 -0.13100001 0.94600004 13047346
0.016000001 -0.132 0.95000005 12389674
0.018000001 -0.133 0.95900005 12126759
0.020000001 -0.134 0.96600002 12192299
-0.059000004 -0.132 0.96500003 16352665
-0.056000002 -0.13000001 0.95100003 16614808
-0.054000001 -0.12900001 0.94300002 16745366
-0.052000001 -0.12900001 0.93800002 16744854
-0.050000001 -0.12800001 0.93500006 16547475
-0.048 -0.12800001 0.93400002 16546704
-0.046000004 -0.12800001 0.93200004 16347527
-0.044000003 -0.12800001 0.93100005 16344960
-0.042000003 -0.127 0.92900002 16211064
-0.040000003 -0.127 0.92800003 15947889
-0.038000003 -0.127 0.92700005 16078963
-0.036000002 -0.127 0.92700005 15947631
-0.034000002 -0.127 0.92700005 15946857
-0.033 -0.127 0.92700005 16142693
-0.031000001 -0.127 0.92700005 16075618
-0.029000001 -0.127 0.92600006 15944803
-0.027000001 -0.127 0.92700005 16537709
-0.025 -0.127 0.92700005 16077667
-0.023000002 -0.127 0.92800003 14564171
-0.022000002 -0.127 0.92900002 13839678
-0.020000001 -0.127 0.92900002 15221849
-0.018000001 -0.127 0.93000007 16743820
-0.016000001 -0.127 0.93000007 16612231
-0.014 -0.127 0.93000007 14825803
-0.012 -0.127 0.93000007 13708347
-0.010000001 -0.127 0.93100005 13902137
-0.0090000005 -0.12800001 0.93200004 15943004
-0.0070000002 -0.12800001 0.93200004 14955596
-0.0050000004 -0.12800001 0.93300003 13507380
-0.003 -0.12800001 0.93300003 13574200
-0.001 -0.12800001 0.93300003 13837116
0.001 -0.12800001 0.93200004 14033212
0.003 -0.12800001 0.93300003 13638710
0.0040000002 -0.12800001 0.93300003 13047343
0.0060000001 -0.12800001 0.93500006 13375539
0.0080000004 -0.12800001 0.93600005 13309746
0.010000001 -0.12900001 0.93900007 13112368
0.012 -0.12900001 0.94100004 13705019
0.014 -0.12900001 0.94500005 13179189
0.016000001 -0.13000001 0.94900006 12192807
0.018000001 -0.13100001 0.95600003 12126758
0.020000001 -0.132 0.96300006 12257321
-0.059000004 -0.13000001 0.96300006 16420768
-0.056000002 -0.12800001 0.94900006 16745112
-0.054000001 -0.127 0.94200003 16744854
-0.052000001 -0.127 0.93800002 16679062
-0.050000001 -0.126 0.93500006 16612499
-0.048 -0.126 0.93300003 16611985
-0.046000004 -0.126 0.93200004 16479627
-0.044000003 -0.126 0.93100005 16607876
-0.042000003 -0.125 0.92900002 16540802
-0.040000003 -0.125 0.92900002 16670587
-0.038000003 -0.125 0.92700005 16341876
-0.036000002 -0.125 0.92700005 16144497
-0.034000002 -0.125 0.92700005 16077675
-0.033 -0.125 0.92700005 16142440
-0.031000001 -0.125 0.92600006 15945061
-0.029000001 -0.125 0.92700005 16010339
-0.027000001 -0.125 0.92700005 16602476
-0.025 -0.125 0.92800003 16408943
-0.023000002 -0.125 0.93000007 15550810
-0.022000002 -0.125 0.93000007 14497095
-0.020000001 -0.126 0.93100005 13377588
-0.018000001 -0.126 0.93100005 14496069
-0.016000001 -0.126 0.93200004 13904701
-0.014 -0.126 0.93200004 12720941
-0.012 -0.126 0.93100005 14231100
-0.010000001 -0.126 0.93200004 14297665
-0.0090000005 -0.126 0.93300003 16535141
-0.0070000002 -0.126 0.93300003 15284817
-0.0050000004 -0.126 0.93300003 13705272
-0.003 -0.126 0.93400002 14100030
-0.001 -0.126 0.93300003 15021134
0.001 -0.126 0.93300003 15547478
0.003 -0.126 0.93300003 14757705
0.0040000002 -0.126 0.93400002 13442101
0.0060000001 -0.126 0.93600005 13310771
0.0080000004 -0.126 0.93700004 13245235
0.010000001 -0.127 0.93900007 12982579
0.012 -0.127 0.94200003 13311288
0.014 -0.12800001 0.94600004 13112626
0.016000001 -0.12800001 0.94900006 12323880
0.018000001 -0.12900001 0.95700002 11535391
0.020000001 -0.13000001 0.96300006 11732512
0.022000002 -0.13100001 0.97400004 11339809
-0.089000002 -0.13000001 0.97300005 16706742
-0.087000005 -0.12900001 0.96900004 16507808
-0.085000001 -0.12900001 0.96900004 16506772
-0.083000004 -0.12900001 0.97100008 16572816
-0.061000004 -0.12900001 0.97100008 16098209
-0.059000004 -0.127 0.95700002 16620968
-0.056000002 -0.126 0.94400007 16745624
-0.054000001 -0.125 0.94000006 16612497
-0.052000001 -0.12400001 0.93600005 16677521
-0.050000001 -0.12400001 0.93400002 16742544
-0.048 -0.12400001 0.93300003 16676493
-0.046000004 -0.12400001 0.93200004 16347526
-0.044000003 -0.12400001 0.93100005 16476290
-0.042000003 -0.12400001 0.92900002 16540286
-0.040000003 -0.12400001 0.92900002 16473462
-0.038000003 -0.123 0.92800003 16276083
-0.036000002 -0.123 0.92800003 16078190
-0.034000002 -0.123 0.92700005 15946089
-0.033 -0.123 0.92800003 16010854
-0.031000001 -0.123 0.92700005 15747680
-0.029000001 -0.123 0.92800003 15747166
-0.027000001 -0.123 0.92800003 15944287
-0.025 -0.123 0.92900002 16275304
-0.023000002 -0.12400001 0.93000007 15946852
-0.022000002 -0.12400001 0.93100005 16008281
-0.020000001 -0.12400001 0.93100005 14230843
-0.018000001 -0.12400001 0.93200004 14232383
-0.016000001 -0.12400001 0.93300003 13838908
-0.014 -0.12400001 0.93300003 14823751
-0.012 -0.12400001 0.93300003 15154512
-0.010000001 -0.12400001 0.93300003 15942490
-0.0090000005 -0.12400001 0.93300003 16139869
-0.0070000002 -0.12400001 0.93400002 13705528
-0.0050000004 -0.12400001 0.93300003 13573429
-0.003 -0.12400001 0.93400002 13770808
-0.001 -0.12400001 0.93400002 13836601
0.001 -0.12400001 0.93400002 14626117
0.003 -0.12400001 0.93300003 14757704
0.0040000002 -0.12400001 0.93400002 13573944
0.0060000001 -0.12400001 0.93600005 13246262
0.0080000004 -0.125 0.93700004 13246519
0.010000001 -0.125 0.93900007 12785452
0.012 -0.125 0.94100004 12719402
0.014 -0.125 0.94400007 12915757
0.016000001 -0.126 0.94700003 12849196
0.018000001 -0.127 0.95400006 11732257
0.020000001 -0.12800001 0.96100003 11403805
0.022000002 -0.12900001 0.97100008 11143200
-0.088000007 -0.127 0.96700007 16444085
-0.086000003 -0.126 0.96100003 16441755
-0.084000006 -0.126 0.95900005 16308106
-0.082000002 -0.126 0.96000004 16373125
-0.080000006 -0.126 0.96400005 16570762
-0.079000004 -0.127 0.96800005 16702866
-0.077000007 -0.127 0.97100008 16703639
-0.061000004 -0.127 0.96700007 14915721
-0.058000002 -0.125 0.95200002 16289688
-0.056000002 -0.123 0.94200003 16546956
-0.054000001 -0.123 0.93900007 15953793
-0.052000001 -0.12200001 0.93500006 16479623
-0.050000001 -0.12200001 0.93300003 16544644
-0.048 -0.12200001 0.93200004 16543361
-0.046000004 -0.12200001 0.93200004 16476541
-0.044000003 -0.12200001 0.93000007 16474488
-0.042000003 -0.12200001 0.92800003 16342645
-0.040000003 -0.12200001 0.92900002 16276083
-0.038000003 -0.12200001 0.92800003 16012398
-0.036000002 -0.12100001 0.92800003 16077675
-0.034000002 -0.12100001 0.92800003 15945575
-0.033 -0.12200001 0.92900002 15813475
-0.031000001 -0.12100001 0.92800003 15681373
-0.029000001 -0.12200001 0.92900002 15549529
-0.027000001 -0.12200001 0.92900002 15220307
-0.025 -0.12200001 0.92900002 14694219
-0.023000002 -0.12200001 0.93100005 14428993
-0.022000002 -0.12200001 0.93200004 16273507
-0.020000001 -0.12200001 0.93200004 15221075
-0.018000001 -0.12200001 0.93300003 13247798
-0.016000001 -0.12200001 0.93400002 15089233
-0.014 -0.12200001 0.93300003 16669292
-0.012 -0.12200001 0.93300003 15284046
-0.010000001 -0.12200001 0.93500006 14363456
-0.0090000005 -0.12200001 0.93400002 13837368
-0.0070000002 -0.12200001 0.93400002 13508403
-0.0050000004 -0.12200001 0.93400002 13705784
-0.003 -0.12200001 0.93500006 13771321
-0.001 -0.12200001 0.93300003 13705528
0.001 -0.12200001 0.93300003 13705528
0.003 -0.12200001 0.93300003 13903164
0.0040000002 -0.12200001 0.93300003 13968186
0.0060000001 -0.12200001 0.93500006 13704757
0.0080000004 -0.12200001 0.93600005 12785454
0.010000001 -0.123 0.93800002 12919608
0.012 -0.123 0.94000006 15025498
0.014 -0.123 0.94300002 14366286
0.016000001 -0.12400001 0.94600004 12062247
0.018000001 -0.125 0.95200002 13244723
0.020000001 -0.126 0.95900005 12718379
0.022000002 -0.127 0.96900004 11538979
-0.091000006 -0.126 0.97300005 16379602
-0.088000007 -0.12400001 0.96200007 15785649
-0.085000001 -0.123 0.95400006 15455124
-0.083000004 -0.123 0.95000005 16176526
-0.081 -0.123 0.95000005 15847304
-0.079000004 -0.123 0.95200002 16043913
-0.078000002 -0.123 0.95600003 16767378
-0.076000005 -0.12400001 0.95900005 16767378
-0.074000001 -0.12400001 0.96400005 16636562
-0.073000006 -0.125 0.96700007 16636303
-0.071000002 -0.125 0.97000003 16636557
-0.069000006 -0.126 0.97300005 16635016
-0.067000002 -0.126 0.97400004 16566404
-0.065000005 -0.126 0.97300005 16105348
-0.063000001 -0.125 0.96800005 16433813
-0.061000004 -0.12400001 0.96000004 16430235
-0.058000002 -0.12200001 0.94800007 14842238
-0.056000002 -0.12100001 0.94100004 15361910
-0.054000001 -0.12100001 0.93800002 15820665
-0.052000001 -0.12100001 0.93500006 16148859
-0.050000001 -0.12 0.93200004 16213881
-0.048 -0.12 0.93200004 16344697
-0.046000004 -0.12 0.93100005 16147575
-0.044000003 -0.12 0.92900002 16080498
-0.042000003 -0.12 0.92800003 15817582
-0.040000003 -0.12 0.92800003 15881324
-0.038000003 -0.119 0.92700005 15946089
-0.036000002 -0.12 0.92800003 15945832
-0.034000002 -0.12 0.92800003 15813989
-0.033 -0.12 0.93000007 15616094
-0.031000001 -0.12 0.92900002 15549529
-0.029000001 -0.12 0.93000007 15417173
-0.027000001 -0.12 0.93000007 15088462
-0.025 -0.12 0.93100005 14563146
-0.023000002 -0.12 0.93200004 14233669
-0.022000002 -0.12 0.93300003 15550045
-0.020000001 -0.12 0.93300003 16605040
-0.018000001 -0.12 0.93400002 16737654
-0.016000001 -0.12 0.93400002 16605553
-0.014 -0.12 0.93400002 15286613
-0.012 -0.12 0.93400002 13049395
-0.010000001 -0.12100001 0.93600005 13312565
-0.0090000005 -0.12 0.93500006 13443637
-0.0070000002 -0.12 0.93500006 13575223
-0.0050000004 -0.12 0.93500006 13509430
-0.003 -0.12 0.93500006 13509687
-0.001 -0.12 0.93400002 13641016
0.001 -0.12 0.93300003 13574711
0.003 -0.12 0.93400002 13640505
0.0040000002 -0.12 0.93400002 13706297
0.0060000001 -0.12 0.93400002 12851244
0.0080000004 -0.12100001 0.93600005 14234951
0.010000001 -0.12100001 0.93700004 16145259
0.012 -0.12100001 0.93800002 16547463
0.014 -0.12100001 0.94000006 16680592
0.016000001 -0.12200001 0.94300002 16412284
0.018000001 -0.12200001 0.94700003 12590643
0.020000001 -0.123 0.95300007 13509437
0.022000002 -0.12400001 0.96200007 13642049
0.024 -0.125 0.97300005 13579330
-0.091000006 -0.12400001 0.97300005 15328716
-0.088000007 -0.12200001 0.96200007 15129263
-0.085000001 -0.12100001 0.95300007 14468489
-0.083000004 -0.12100001 0.94800007 15715718
-0.081 -0.12 0.94600004 16371337
-0.079000004 -0.12 0.94700003 15779452
-0.077000007 -0.12 0.94700003 16437382
-0.075000003 -0.12100001 0.94900006 16766863
-0.074000001 -0.12100001 0.95300007 16700813
-0.072000004 -0.12100001 0.95600003 16634761
-0.07 -0.12200001 0.95900005 16634507
-0.068000004 -0.12200001 0.96200007 16765326
-0.067000002 -0.12200001 0.96400005 16765585
-0.065000005 -0.12200001 0.96300006 16765329
-0.063000001 -0.12200001 0.96000004 16633231
-0.060000002 -0.12100001 0.95300007 16566927
-0.058000002 -0.12 0.94400007 15172977
-0.056000002 -0.119 0.93900007 13852514
-0.053000003 -0.119 0.93600005 14899561
-0.051000003 -0.119 0.93400002 15358060
-0.050000001 -0.11800001 0.93200004 15620976
-0.048 -0.11800001 0.93200004 16014449
-0.046000004 -0.11800001 0.93100005 15817584
-0.044000003 -0.11800001 0.93000007 15882100
-0.042000003 -0.11800001 0.93000007 15291747
-0.040000003 -0.11800001 0.93000007 15289698
-0.038000003 -0.11800001 0.92900002 15353961
-0.036000002 -0.11800001 0.92900002 16209001
-0.035 -0.11800001 0.93000007 16534633
-0.033 -0.11800001 0.93000007 15222363
-0.031000001 -0.11800001 0.93000007 15549262
-0.029000001 -0.11800001 0.93100005 15024209
-0.027000001 -0.11800001 0.93200004 14760523
-0.025 -0.11800001 0.93300003 14627910
-0.023000002 -0.11800001 0.93400002 14430274
-0.022000002 -0.119 0.93500006 13903674
-0.020000001 -0.119 0.93500006 14890569
-0.018000001 -0.119 0.93600005 15351377
-0.016000001 -0.119 0.93500006 14824007
-0.014 -0.119 0.93500006 13179438
-0.012 -0.11800001 0.93400002 13574710
-0.010000001 -0.119 0.93600005 13444153
-0.0090000005 -0.119 0.93500006 13444153
-0.0070000002 -0.119 0.93500006 13378360
-0.0050000004 -0.119 0.93500006 13509946
-0.003 -0.119 0.93600005 13378360
-0.001 -0.119 0.93500006 13509946
0.001 -0.119 0.93500006 13444153
0.003 -0.119 0.93600005 13575995
0.0040000002 -0.119 0.93500006 13113903
0.0060000001 -0.119 0.93500006 13904958
0.0080000004 -0.119 0.93600005 16147566
0.010000001 -0.119 0.93500006 15292510
0.012 -0.119 0.93600005 12726576
0.014 -0.119 0.93700004 13318720
0.016000001 -0.119 0.93900007 16675959
0.018000001 -0.119 0.94200003 16220293
0.020000001 -0.12 0.94600004 15553633
0.022000002 -0.12100001 0.95300007 15423075
0.024 -0.12200001 0.96100003 13910610
0.026000001 -0.123 0.97000003 12462132
-0.088000007 -0.12100001 0.96600002 15326391
-0.085000001 -0.12 0.95600003 14535061
-0.083000004 -0.119 0.95000005 14335866
-0.081 -0.11800001 0.94700003 15386750
-0.079000004 -0.11800001 0.94700003 16174726
-0.077000007 -0.11800001 0.94500005 16305283
-0.075000003 -0.11800001 0.94400007 16699526
-0.073000006 -0.11800001 0.94600004 16699531
-0.071000002 -0.11800001 0.94600004 16567687
-0.069000006 -0.11800001 0.94700003 16567687
-0.068000004 -0.119 0.95000005 16632969
-0.066 -0.119 0.95000005 16501383
-0.064000003 -0.119 0.95000005 16501381
-0.062000003 -0.11800001 0.94800007 16567174
-0.060000002 -0.11800001 0.94400007 16369284
-0.057000004 -0.11700001 0.93900007 16694161
-0.055000003 -0.11700001 0.93600005 13198678
-0.053000003 -0.11700001 0.93400002 12731977
-0.051000003 -0.116 0.93200004 14832994
-0.050000001 -0.116 0.93200004 15487847
-0.048 -0.116 0.93200004 15619176
-0.046000004 -0.116 0.93100005 15946602
-0.044000003 -0.116 0.93100005 15422569
-0.042000003 -0.116 0.93000007 14568794
-0.040000003 -0.116 0.93000007 15290468
-0.038000003 -0.116 0.92900002 16141674
-0.036000002 -0.116 0.93000007 16671097
-0.035 -0.116 0.93000007 16016247
-0.033 -0.116 0.93000007 14630480
-0.031000001 -0.116 0.93000007 15024460
-0.029000001 -0.116 0.93200004 15022669
-0.027000001 -0.116 0.93200004 15020873
-0.025 -0.116 0.93200004 14496324
-0.023000002 -0.11700001 0.93400002 14298945
-0.022000002 -0.11700001 0.93500006 14035774
-0.020000001 -0.11700001 0.93400002 13575737
-0.018000001 -0.11700001 0.93500006 13444151
-0.016000001 -0.11700001 0.93600005 13444153
-0.014 -0.11700001 0.93500006 13575739
-0.012 -0.11700001 0.93500006 13378360
-0.010000001 -0.11700001 0.93700004 13640249
-0.0090000005 -0.11700001 0.93600005 13640249
-0.0070000002 -0.11700001 0.93600005 13574969
-0.0050000004 -0.11700001 0.93600005 13574969
-0.003 -0.11700001 0.93700004 13574969
-0.001 -0.11700001 0.93600005 13443896
0.001 -0.11700001 0.93600005 13575739
0.003 -0.11700001 0.93700004 13641532
0.0040000002 -0.11700001 0.93600005 14233666
0.0060000001 -0.11700001 0.93500006 16344431
0.0080000004 -0.11700001 0.93500006 16742520
0.010000001 -0.11700001 0.93400002 16615552
0.012 -0.11700001 0.93400002 15363423
0.014 -0.11700001 0.93400002 14045514
0.016000001 -0.11700001 0.93500006 15954023
0.018000001 -0.11700001 0.93600005 16752273
0.019000001 -0.11700001 0.93900007 16227982
0.021000002 -0.11800001 0.94300002 16753298
0.023000002 -0.11800001 0.94900006 16425109
0.026000001 -0.119 0.95700002 16420754
0.028000001 -0.12 0.96500003 15358826
0.030000001 -0.12200001 0.97400004 12394029
-0.089000002 -0.12 0.97100008 14800572
-0.086000003 -0.119 0.96400005 15456171
-0.083000004 -0.11800001 0.95600003 15256974
-0.081 -0.11700001 0.95200002 14662509
-0.079000004 -0.11700001 0.94900006 15187568
-0.077000007 -0.116 0.94600004 16304514
-0.075000003 -0.116 0.94400007 16764807
-0.073000006 -0.116 0.94400007 16699522
-0.071000002 -0.116 0.94300002 15910007
-0.069000006 -0.116 0.94200003 15910007
-0.067000002 -0.116 0.94200003 16436353
-0.065000005 -0.116 0.94200003 16304002
-0.063000001 -0.116 0.94100004 16238211
-0.061000004 -0.116 0.94100004 16567177
-0.059000004 -0.116 0.94000006 16501384
-0.057000004 -0.115 0.93600005 16700053
-0.055000003 -0.115 0.93400002 16365966
-0.053000003 -0.115 0.93300003 12605769
-0.051000003 -0.115 0.93200004 13321034
-0.049000002 -0.115 0.93200004 15159392
-0.048 -0.115 0.93200004 15421283
-0.046000004 -0.115 0.93200004 15224676
-0.044000003 -0.115 0.93200004 15224161
-0.042000003 -0.11400001 0.93100005 14898015
-0.040000003 -0.11400001 0.93100005 15888251
-0.038000003 -0.11400001 0.93000007 16610691
-0.036000002 -0.11400001 0.93100005 16748958
-0.035 -0.11400001 0.93000007 16160154
-0.033 -0.11400001 0.93100005 13317182
-0.031000001 -0.11400001 0.93100005 14564427
-0.029000001 -0.11400001 0.93200004 15152720
-0.027000001 -0.115 0.93300003 14823755
-0.025 -0.115 0.93300003 14626627
-0.023000002 -0.115 0.93400002 14232639
-0.022000002 -0.115 0.93500006 13837881
-0.020000001 -0.115 0.93500006 13706296
-0.018000001 -0.115 0.93600005 13706809
-0.016000001 -0.115 0.93600005 13706555
-0.014 -0.115 0.93600005 13444153
-0.012 -0.115 0.93600005 13509946
-0.010000001 -0.115 0.93700004 13640249
-0.0090000005 -0.115 0.93600005 13640249
-0.0070000002 -0.115 0.93600005 13706042
-0.0050000004 -0.115 0.93700004 13640762
-0.003 -0.115 0.93700004 13640762
-0.001 -0.115 0.93700004 13641532
0.001 -0.115 0.93600005 13707325
0.003 -0.115 0.93700004 13575739
0.0040000002 -0.115 0.93500006 14830168
0.0060000001 -0.115 0.93400002 15031907
0.0080000004 -0.115 0.93400002 13981273
0.010000001 -0.115 0.93300003 16419983
0.012 -0.115 0.93300003 16754851
0.014 -0.11400001 0.93200004 16755874
0.016000001 -0.11400001 0.93200004 16492960
0.018000001 -0.115 0.93300003 16424588
0.019000001 -0.115 0.93400002 16294801
0.021000002 -0.115 0.93700004 13323326
0.023000002 -0.116 0.94100004 13322042
0.025 -0.116 0.94500005 14242127
0.027000001 -0.11700001 0.95200002 16746384
0.030000001 -0.11800001 0.96000004 14704747
0.032000002 -0.119 0.96900004 13182005
-0.086000003 -0.11700001 0.96900004 14142129
-0.084000006 -0.116 0.96200007 14797472
-0.082000002 -0.116 0.95700002 15189642
-0.079000004 -0.115 0.95300007 15252849
-0.077000007 -0.115 0.94900006 15186283
-0.075000003 -0.11400001 0.94600004 15318386
-0.073000006 -0.11400001 0.94500005 16041846
