# .PCD v0.7 - Point Cloud Data file format
VERSION 0.7
FIELDS x y z rgb
SIZE 4 4 4 4
TYPE F F F F
COUNT 1 1 1 1
WIDTH 1043
HEIGHT 1
VIEWPOINT 0 0 0 1 0 0 0
POINTS 1043
DATA ascii
-0.044491626 -0.11787988 0.99200004 nan
-0.043442495 -0.11752339 0.98900002 nan
-0.042484917 -0.11740456 0.98800004 nan
-0.041529186 -0.11728572 0.98700005 -3.3024722e+38
-0.040534154 -0.11704806 0.98500007 -3.1957693e+38
-0.039583046 -0.11692923 0.98400003 -3.1157045e+38
-0.038673092 -0.11692923 0.98400003 -2.9823655e+38
-0.037686381 -0.11669157 0.98200005 -2.5820868e+38
-0.036778279 -0.11669157 0.98200005 -2.2350812e+38
-0.035833646 -0.11657274 0.98100007 -2.221842e+38
-0.034926463 -0.11657274 0.98100007 -2.2217905e+38
-0.034019284 -0.11657274 0.98100007 -2.1952054e+38
-0.033112101 -0.11657274 0.98100007 -2.1552762e+38
-0.032204922 -0.11657274 0.98100007 -2.1419322e+38
-0.031329643 -0.11669157 0.98200005 -2.1153476e+38
-0.030421538 -0.11669157 0.98200005 -2.1154517e+38
-0.029573541 -0.11692923 0.98400003 -2.1287961e+38
-0.028692717 -0.11704806 0.98500007 -2.1287961e+38
-0.027810041 -0.11716689 0.98600006 -2.1154517e+38
-0.026952796 -0.11740456 0.98800004 -2.1554849e+38
-0.026065499 -0.11752339 0.98900002 -2.1821737e+38
-0.025150919 -0.11752339 0.98900002 -2.1554849e+38
-0.024285352 -0.11776105 0.99100006 -2.1821737e+38
-0.023392504 -0.11787988 0.99200004 -2.2088625e+38
-0.022475151 -0.11787988 0.99200004 -2.1821737e+38
-0.021601262 -0.11811754 0.99400002 -2.1554849e+38
-0.020702867 -0.11823637 0.99500006 -2.1554849e+38
-0.019782739 -0.11823637 0.99500006 -2.1421405e+38
-0.018938441 -0.11871169 0.99900007 -2.1421405e+38
-0.018032648 -0.11883052 1 -2.1688293e+38
-0.017107897 -0.11883052 1 -2.1688293e+38
-0.016247878 -0.11930584 1.0040001 -2.1421405e+38
-0.015319427 -0.11930584 1.0040001 -2.1154517e+38
-0.014419644 -0.1195435 1.006 -2.1287963e+38
-0.01354298 -0.12001882 1.01 -2.1554851e+38
-0.01263395 -0.12025648 1.0120001 -2.1554851e+38
-0.011744339 -0.12073181 1.016 -2.1554851e+38
-0.0108686 -0.12144479 1.0220001 -2.1688295e+38
-0.0099526336 -0.12180129 1.0250001 -2.1554851e+38
-0.059184074 -0.12073551 1.024 nan
-0.058009639 -0.12026388 1.0200001 nan
-0.056954499 -0.12002807 1.018 nan
-0.05557292 -0.11908483 1.01 nan
-0.054530725 -0.11884902 1.008 nan
-0.053492229 -0.11861321 1.006 nan
-0.052352935 -0.11814158 1.0020001 nan
-0.051426336 -0.11814158 1.0020001 nan
-0.050398938 -0.11790577 1 nan
-0.049375236 -0.11766995 0.99800003 nan
-0.048452336 -0.11766995 0.99800003 nan
-0.047481809 -0.11755205 0.99700004 nan
-0.046419732 -0.11719833 0.99400002 nan
-0.045454755 -0.11708043 0.99300003 nan
-0.044536479 -0.11708043 0.99300003 nan
-0.043486424 -0.11672671 0.99000007 nan
-0.042527918 -0.11660881 0.98900002 nan
-0.041571263 -0.1164909 0.98800004 -3.3823311e+38
-0.040534154 -0.11613718 0.98500007 -3.2624402e+38
-0.039623275 -0.11613718 0.98500007 -3.1022568e+38
-0.038673092 -0.11601928 0.98400003 -2.9156442e+38
-0.037724759 -0.11590137 0.98300004 -2.555294e+38
-0.036778279 -0.11578347 0.98200005 -2.2083924e+38
-0.035870172 -0.11578347 0.98200005 -2.2217905e+38
-0.034926463 -0.11566556 0.98100007 -2.2351351e+38
-0.034019284 -0.11566556 0.98100007 -2.2218946e+38
-0.033112101 -0.11566556 0.98100007 -2.1953098e+38
-0.03223775 -0.11578347 0.98200005 -2.1819137e+38
-0.031329643 -0.11578347 0.98200005 -2.155381e+38
-0.030452518 -0.11590137 0.98300004 -2.1420892e+38
-0.029603595 -0.11613718 0.98500007 -2.1420892e+38
-0.028692717 -0.11613718 0.98500007 -2.1021075e+38
-0.027810041 -0.11625509 0.98600006 -2.0887631e+38
-0.026980076 -0.11660881 0.98900002 -2.1287961e+38
-0.026065499 -0.11660881 0.98900002 -2.1821737e+38
-0.02517635 -0.11672671 0.99000007 -2.1955181e+38
-0.024309859 -0.11696252 0.99200004 -2.2088625e+38
-0.023392504 -0.11696252 0.99200004 -2.2088625e+38
-0.022497809 -0.11708043 0.99300003 -2.1554849e+38
-0.021601262 -0.11719833 0.99400002 -2.1421405e+38
-0.020702867 -0.11731624 0.99500006 -2.1554849e+38
-0.019802621 -0.11743414 0.99600005 -2.1554849e+38
-0.018938441 -0.11778786 0.99900007 -2.1821737e+38
-0.018032648 -0.11790577 1 -2.1955181e+38
-0.017107897 -0.11790577 1 -2.1821737e+38
-0.016247878 -0.11837739 1.0040001 -2.1421405e+38
-0.015319427 -0.11837739 1.0040001 -2.1287961e+38
-0.014419644 -0.11861321 1.006 -2.1287963e+38
-0.01354298 -0.11908483 1.01 -2.1554851e+38
-0.01263395 -0.11932064 1.0120001 -2.1554851e+38
-0.011767458 -0.12002807 1.018 -2.1554851e+38
-0.0108686 -0.12049969 1.0220001 -2.1955183e+38
-0.0099526336 -0.12085342 1.0250001 -2.1955183e+38
-0.059068479 -0.1195546 1.0220001 nan
-0.058009639 -0.11932064 1.0200001 nan
-0.056842603 -0.11885271 1.016 nan
-0.05557292 -0.11815083 1.01 nan
-0.054530725 -0.11791687 1.008 nan
-0.053492229 -0.1176829 1.006 nan
-0.052352935 -0.11721498 1.0020001 nan
-0.051426336 -0.11721498 1.0020001 nan
-0.050398938 -0.11698102 1 nan
-0.049375236 -0.11674706 0.99800003 nan
-0.048452336 -0.11674706 0.99800003 nan
-0.047481809 -0.11663008 0.99700004 nan
-0.046466433 -0.11639611 0.99500006 nan
-0.045500532 -0.11627913 0.99400002 nan
-0.044536479 -0.11616215 0.99300003 nan
-0.043486424 -0.11581121 0.99000007 nan
-0.042527918 -0.11569422 0.98900002 nan
-0.041571263 -0.11557724 0.98800004 -3.3823827e+38
-0.040575307 -0.11534329 0.98600006 -3.2890769e+38
-0.039623275 -0.11522631 0.98500007 -3.1156008e+38
-0.038712393 -0.11522631 0.98500007 -2.8754549e+38
-0.037724759 -0.11499234 0.98300004 -2.4752271e+38
-0.036815729 -0.11499234 0.98300004 -2.2484252e+38
-0.035906699 -0.11499234 0.98300004 -2.2483743e+38
-0.034962066 -0.11487536 0.98200005 -2.2351864e+38
-0.034053959 -0.11487536 0.98200005 -2.2219457e+38
-0.033145856 -0.11487536 0.98200005 -2.2219978e+38
-0.032270577 -0.11499234 0.98300004 -2.2219986e+38
-0.031361546 -0.11499234 0.98300004 -2.1954141e+38
-0.030452518 -0.11499234 0.98300004 -2.1554849e+38
-0.029603595 -0.11522631 0.98500007 -2.1287961e+38
-0.028721845 -0.11534329 0.98600006 -2.0887631e+38
-0.027838245 -0.11546026 0.98700005 -2.0887631e+38
-0.026980076 -0.11569422 0.98900002 -2.1421407e+38
-0.026091853 -0.11581121 0.99000007 -2.1688295e+38
-0.025201781 -0.11592819 0.99100006 -2.1821739e+38
-0.024309859 -0.11604517 0.99200004 -2.1955183e+38
-0.023416085 -0.11616215 0.99300003 -2.1821737e+38
-0.022497809 -0.11616215 0.99300003 -2.1287961e+38
-0.021622993 -0.11639611 0.99500006 -2.1287961e+38
-0.020702867 -0.11639611 0.99500006 -2.1421405e+38
-0.019802621 -0.1165131 0.99600005 -2.1688293e+38
-0.018938441 -0.11686404 0.99900007 -2.1955181e+38
-0.018032648 -0.11698102 1 -2.2088627e+38
-0.017107897 -0.11698102 1 -2.1955183e+38
-0.016247878 -0.11744894 1.0040001 -2.1554851e+38
-0.015349944 -0.1176829 1.006 -2.1554851e+38
-0.014419644 -0.1176829 1.006 -2.1554851e+38
-0.01354298 -0.11815083 1.01 -2.1688295e+38
-0.01263395 -0.11838479 1.0120001 -2.1688295e+38
-0.011790577 -0.11932064 1.0200001 -2.1955183e+38
-0.0108686 -0.1195546 1.0220001 -2.2222071e+38
-0.059068479 -0.1186095 1.0220001 nan
-0.057895895 -0.11814528 1.018 nan
-0.056842603 -0.11791316 1.016 nan
-0.055462874 -0.11698472 1.008 nan
-0.054530725 -0.11698472 1.008 nan
-0.053492229 -0.1167526 1.006 nan
-0.052352935 -0.11628838 1.0020001 nan
-0.051426336 -0.11628838 1.0020001 nan
-0.050398938 -0.11605627 1 nan
-0.049375236 -0.11582416 0.99800003 nan
-0.048452336 -0.11582416 0.99800003 nan
-0.047481809 -0.1157081 0.99700004 nan
-0.046466433 -0.11547598 0.99500006 nan
-0.045500532 -0.11535993 0.99400002 nan
-0.044536479 -0.11524387 0.99300003 nan
-0.043486424 -0.1148957 0.99000007 nan
-0.042527918 -0.11477965 0.98900002 nan
-0.041571263 -0.11466359 0.98800004 -3.3555896e+38
-0.040534154 -0.11431542 0.98500007 -3.2623877e+38
-0.039623275 -0.11431542 0.98500007 -3.1288931e+38
-0.038673092 -0.11419937 0.98400003 -2.848766e+38
-0.037724759 -0.11408331 0.98300004 -2.4884673e+38
-0.036815729 -0.11408331 0.98300004 -2.3151476e+38
-0.035870172 -0.11396725 0.98200005 -2.2750635e+38
-0.034962066 -0.11396725 0.98200005 -2.2351349e+38
-0.034053959 -0.11396725 0.98200005 -2.2085498e+38
-0.033145856 -0.11396725 0.98200005 -2.1953094e+38
-0.032270577 -0.11408331 0.98300004 -2.1953098e+38
-0.031361546 -0.11408331 0.98300004 -2.1820699e+38
-0.030452518 -0.11408331 0.98300004 -2.1554851e+38
-0.029603595 -0.11431542 0.98500007 -2.1287963e+38
-0.028721845 -0.11443148 0.98600006 -2.1154519e+38
-0.027810041 -0.11443148 0.98600006 -2.1154519e+38
-0.026980076 -0.11477965 0.98900002 -2.1421407e+38
-0.026091853 -0.1148957 0.99000007 -2.1421407e+38
-0.02517635 -0.1148957 0.99000007 -2.1287963e+38
-0.024309859 -0.11512782 0.99200004 -2.1287963e+38
-0.023416085 -0.11524387 0.99300003 -2.1421407e+38
-0.022497809 -0.11524387 0.99300003 -2.1287963e+38
-0.021622993 -0.11547598 0.99500006 -2.1021075e+38
-0.020702867 -0.11547598 0.99500006 -2.1287963e+38
-0.019802621 -0.11559204 0.99600005 -2.1554851e+38
-0.018938441 -0.11594021 0.99900007 -2.1821739e+38
-0.018032648 -0.11605627 1 -2.2088627e+38
-0.017107897 -0.11605627 1 -2.1821739e+38
-0.016247878 -0.11652049 1.0040001 -2.1688295e+38
-0.015319427 -0.11652049 1.0040001 -2.1821739e+38
-0.014419644 -0.1167526 1.006 -2.1955183e+38
-0.01354298 -0.11721683 1.01 -2.1955183e+38
-0.01263395 -0.11744894 1.0120001 -2.1821739e+38
-0.011790577 -0.11837739 1.0200001 -2.1955183e+38
-0.0108686 -0.1186095 1.0220001 -2.2222071e+38
-0.0099526336 -0.11895768 1.0250001 -2.2488959e+38
-0.058952887 -0.11743414 1.0200001 nan
-0.057895895 -0.11720388 1.018 nan
-0.056842603 -0.11697362 1.016 nan
-0.055462874 -0.11605257 1.008 nan
-0.054530725 -0.11605257 1.008 nan
-0.053492229 -0.11582231 1.006 nan
-0.052352935 -0.11536178 1.0020001 nan
-0.05132369 -0.11513152 1 nan
-0.050398938 -0.11513152 1 nan
-0.049375236 -0.11490125 0.99800003 nan
-0.048403785 -0.11478612 0.99700004 nan
-0.047481809 -0.11478612 0.99700004 nan
-0.046466433 -0.11455586 0.99500006 nan
-0.045500532 -0.11444072 0.99400002 nan
-0.044536479 -0.1143256 0.99300003 nan
-0.043486424 -0.1139802 0.99000007 nan
-0.042527918 -0.11386507 0.98900002 nan
-0.041571263 -0.11374994 0.98800004 -3.3555896e+38
-0.040534154 -0.11340454 0.98500007 -3.2757321e+38
-0.039623275 -0.11340454 0.98500007 -3.142186e+38
-0.038673092 -0.11328941 0.98400003 -2.8621107e+38
-0.037724759 -0.11317428 0.98300004 -2.528449e+38
-0.036815729 -0.11317428 0.98300004 -2.3685252e+38
-0.035870172 -0.11305915 0.98200005 -2.3017527e+38
-0.034962066 -0.11305915 0.98200005 -2.2484793e+38
-0.034053959 -0.11305915 0.98200005 -2.2085498e+38
-0.033145856 -0.11305915 0.98200005 -2.1686206e+38
-0.032270577 -0.11317428 0.98300004 -2.1552766e+38
-0.031361546 -0.11317428 0.98300004 -2.1420366e+38
-0.030452518 -0.11317428 0.98300004 -2.1421405e+38
-0.029603595 -0.11340454 0.98500007 -2.1421405e+38
-0.028721845 -0.11351968 0.98600006 -2.1421407e+38
-0.027810041 -0.11351968 0.98600006 -2.1154519e+38
-0.026980076 -0.11386507 0.98900002 -2.1021075e+38
-0.026065499 -0.11386507 0.98900002 -2.1021075e+38
-0.02517635 -0.1139802 0.99000007 -2.1021075e+38
-0.024309859 -0.11421046 0.99200004 -2.1021075e+38
-0.023392504 -0.11421046 0.99200004 -2.1021075e+38
-0.022497809 -0.1143256 0.99300003 -2.1154519e+38
-0.021601262 -0.11444072 0.99400002 -2.0887631e+38
-0.020702867 -0.11455586 0.99500006 -2.1154519e+38
-0.019802621 -0.11467099 0.99600005 -2.1421407e+38
-0.018919483 -0.11490125 0.99800003 -2.1688295e+38
-0.018014615 -0.11501639 0.99900007 -2.1821739e+38
-0.017107897 -0.11513152 1 -2.1821739e+38
-0.016247878 -0.11559204 1.0040001 -2.1821739e+38
-0.015319427 -0.11559204 1.0040001 -2.2088627e+38
-0.014419644 -0.11582231 1.006 -2.1955183e+38
-0.01354298 -0.11628283 1.01 -2.1955183e+38
-0.01263395 -0.1165131 1.0120001 -2.1688295e+38
-0.011767458 -0.11720388 1.018 -2.1554851e+38
-0.0108686 -0.11766441 1.0220001 -2.1955183e+38
-0.0099526336 -0.11800981 1.0250001 -2.2488959e+38
-0.058952887 -0.1164909 1.0200001 nan
-0.057895895 -0.11626249 1.018 nan
-0.056842603 -0.11603408 1.016 nan
-0.055462874 -0.11512042 1.008 nan
-0.054530725 -0.11512042 1.008 nan
-0.053492229 -0.11489201 1.006 nan
-0.052352935 -0.11443518 1.0020001 nan
-0.05132369 -0.11420677 1 nan
-0.050398938 -0.11420677 1 nan
-0.049375236 -0.11397835 0.99800003 nan
-0.048403785 -0.11386415 0.99700004 nan
-0.047481809 -0.11386415 0.99700004 nan
-0.046466433 -0.11363573 0.99500006 nan
-0.045500532 -0.11352152 0.99400002 nan
-0.044536479 -0.11340732 0.99300003 nan
-0.043486424 -0.1130647 0.99000007 nan
-0.042527918 -0.11295049 0.98900002 nan
-0.04161334 -0.11295049 0.98900002 nan
-0.040575307 -0.11260787 0.98600006 -3.2757321e+38
-0.039663501 -0.11260787 0.98600006 -3.1289452e+38
-0.038712393 -0.11249366 0.98500007 -2.8887989e+38
-0.037763137 -0.11237945 0.98400003 -2.5418447e+38
-0.036815729 -0.11226525 0.98300004 -2.3551283e+38
-0.035906699 -0.11226525 0.98300004 -2.2483743e+38
-0.034997668 -0.11226525 0.98300004 -2.2085502e+38
-0.034088638 -0.11226525 0.98300004 -2.2085498e+38
-0.033179607 -0.11226525 0.98300004 -2.1554324e+38
-0.032303408 -0.11237945 0.98400003 -2.1287435e+38
-0.03139345 -0.11237945 0.98400003 -2.1154517e+38
-0.030483497 -0.11237945 0.98400003 -2.1154519e+38
-0.029633651 -0.11260787 0.98600006 -2.102056e+38
-0.028750975 -0.11272208 0.98700005 -2.1021075e+38
-0.027838245 -0.11272208 0.98700005 -2.0887631e+38
-0.026980076 -0.11295049 0.98900002 -2.0754187e+38
-0.026091853 -0.1130647 0.99000007 -2.0887631e+38
-0.025201781 -0.1131789 0.99100006 -2.1154519e+38
-0.024334364 -0.11340732 0.99300003 -2.1021075e+38
-0.023416085 -0.11340732 0.99300003 -2.1021075e+38
-0.022497809 -0.11340732 0.99300003 -2.1287963e+38
-0.021622993 -0.11363573 0.99500006 -2.0887631e+38
-0.020723673 -0.11374994 0.99600005 -2.1021075e+38
-0.019822503 -0.11386415 0.99700004 -2.1154519e+38
-0.018938441 -0.11409256 0.99900007 -2.1154519e+38
-0.018032648 -0.11420677 1 -2.1554851e+38
-0.017107897 -0.11420677 1 -2.2088627e+38
-0.016247878 -0.11466359 1.0040001 -2.2222069e+38
-0.015349944 -0.11489201 1.006 -2.2222069e+38
-0.014419644 -0.11489201 1.006 -2.1821739e+38
-0.013569798 -0.11557724 1.0120001 -2.1688295e+38
-0.012658918 -0.11580566 1.0140001 -2.1554851e+38
-0.011790577 -0.1164909 1.0200001 -2.1688295e+38
-0.0108686 -0.11671931 1.0220001 -2.1955183e+38
-0.0099526336 -0.11706194 1.0250001 -2.2488959e+38
-0.059068479 -0.11577422 1.0220001 nan
-0.057895895 -0.11532109 1.018 nan
-0.056842603 -0.11509453 1.016 nan
-0.055462874 -0.11418827 1.008 nan
-0.054530725 -0.11418827 1.008 nan
-0.053492229 -0.1139617 1.006 nan
-0.052352935 -0.11350857 1.0020001 nan
-0.051426336 -0.11350857 1.0020001 nan
-0.050398938 -0.11328202 1 nan
-0.049375236 -0.11305545 0.99800003 nan
-0.048403785 -0.11294217 0.99700004 nan
-0.047481809 -0.11294217 0.99700004 nan
-0.046466433 -0.1127156 0.99500006 nan
-0.045500532 -0.11260232 0.99400002 nan
-0.044536479 -0.11248904 0.99300003 nan
-0.043530349 -0.11226247 0.99100006 nan
-0.042570919 -0.11214919 0.99000007 nan
-0.04161334 -0.11203592 0.98900002 nan
-0.040616456 -0.11180935 0.98700005 -3.3024213e+38
-0.039663501 -0.11169606 0.98600006 -3.1689784e+38
-0.038751695 -0.11169606 0.98600006 -2.9154877e+38
-0.037763137 -0.1114695 0.98400003 -2.5151561e+38
-0.036853183 -0.1114695 0.98400003 -2.3017507e+38
-0.035943229 -0.1114695 0.98400003 -2.2216855e+38
-0.034997668 -0.11135622 0.98300004 -2.1818614e+38
-0.034088638 -0.11135622 0.98300004 -2.1952054e+38
-0.033179607 -0.11135622 0.98300004 -2.1554324e+38
-0.032303408 -0.1114695 0.98400003 -2.1287435e+38
-0.031425357 -0.11158279 0.98500007 -2.1021073e+38
-0.030514475 -0.11158279 0.98500007 -2.0887631e+38
-0.029663704 -0.11180935 0.98700005 -2.0753671e+38
-0.028750975 -0.11180935 0.98700005 -2.0754187e+38
-0.027866451 -0.11192263 0.98800004 -2.0887631e+38
-0.027007356 -0.11214919 0.99000007 -2.1021075e+38
-0.026091853 -0.11214919 0.99000007 -2.1154519e+38
-0.025201781 -0.11226247 0.99100006 -2.1021075e+38
-0.024334364 -0.11248904 0.99300003 -2.0754187e+38
-0.023416085 -0.11248904 0.99300003 -2.1021075e+38
-0.022520464 -0.11260232 0.99400002 -2.1287963e+38
-0.021644725 -0.11282889 0.99600005 -2.1287963e+38
-0.02074448 -0.11294217 0.99700004 -2.1287963e+38
-0.019822503 -0.11294217 0.99700004 -2.1287963e+38
-0.018957399 -0.11328202 1 -2.1287963e+38
-0.018032648 -0.11328202 1 -2.1421407e+38
-0.017142111 -0.11350857 1.0020001 -2.1688295e+38
-0.016280243 -0.1139617 1.006 -2.2088625e+38
-0.015349944 -0.1139617 1.006 -2.2222069e+38
-0.014448312 -0.11418827 1.008 -2.1955183e+38
-0.013569798 -0.1146414 1.0120001 -2.1688295e+38
-0.012658918 -0.11486796 1.0140001 -2.1688295e+38
-0.011790577 -0.11554766 1.0200001 -2.1688295e+38
-0.0108686 -0.11577422 1.0220001 -2.1821739e+38
-0.0099526336 -0.11611407 1.0250001 -2.2222071e+38
-0.059068479 -0.11482912 1.0220001 nan
-0.058009639 -0.11460441 1.0200001 nan
-0.056842603 -0.11415498 1.016 nan
-0.05557292 -0.11348084 1.01 nan
-0.054530725 -0.11325612 1.008 nan
-0.053492229 -0.11303141 1.006 nan
-0.052352935 -0.11258198 1.0020001 nan
-0.051426336 -0.11258198 1.0020001 nan
-0.050398938 -0.11235727 1 nan
-0.049375236 -0.11213255 0.99800003 nan
-0.048403785 -0.11202019 0.99700004 nan
-0.047481809 -0.11202019 0.99700004 nan
-0.046466433 -0.11179548 0.99500006 nan
-0.045500532 -0.11168312 0.99400002 nan
-0.044581328 -0.11168312 0.99400002 nan
-0.043530349 -0.11134605 0.99100006 nan
-0.042570919 -0.11123369 0.99000007 nan
-0.041655414 -0.11123369 0.99000007 -3.3822786e+38
-0.040616456 -0.11089662 0.98700005 -3.2757325e+38
-0.039703727 -0.11089662 0.98700005 -3.1689784e+38
-0.038751695 -0.11078426 0.98600006 -2.8887993e+38
-0.037801515 -0.1106719 0.98500007 -2.4483826e+38
-0.036853183 -0.11055955 0.98400003 -2.1949439e+38
-0.035943229 -0.11055955 0.98400003 -2.1951532e+38
-0.035033271 -0.11055955 0.98400003 -2.1818614e+38
-0.034123316 -0.11055955 0.98400003 -2.168621e+38
-0.033213362 -0.11055955 0.98400003 -2.128692e+38
-0.032336235 -0.1106719 0.98500007 -2.0887103e+38
-0.031425357 -0.1106719 0.98500007 -2.062074e+38
-0.030545454 -0.11078426 0.98600006 -2.0754187e+38
-0.029663704 -0.11089662 0.98700005 -2.0753671e+38
-0.028780105 -0.11100898 0.98800004 -2.0887631e+38
-0.027866451 -0.11100898 0.98800004 -2.0887631e+38
-0.027007356 -0.11123369 0.99000007 -2.1154519e+38
-0.02611821 -0.11134605 0.99100006 -2.1154519e+38
-0.025227211 -0.11145841 0.99200004 -2.0887631e+38
-0.024334364 -0.11157076 0.99300003 -2.0887631e+38
-0.023439666 -0.11168312 0.99400002 -2.1021075e+38
-0.022543121 -0.11179548 0.99500006 -2.1154519e+38
-0.021666456 -0.11202019 0.99700004 -2.1688295e+38
-0.02074448 -0.11202019 0.99700004 -2.1554851e+38
-0.019842384 -0.11213255 0.99800003 -2.1421407e+38
-0.018957399 -0.11235727 1 -2.1421407e+38
-0.018068712 -0.11258198 1.0020001 -2.1287963e+38
-0.017142111 -0.11258198 1.0020001 -2.1421407e+38
-0.016280243 -0.11303141 1.006 -2.1554851e+38
-0.015380461 -0.11325612 1.008 -2.1821739e+38
-0.014448312 -0.11325612 1.008 -2.1688295e+38
-0.013569798 -0.11370555 1.0120001 -2.1688295e+38
-0.012658918 -0.11393026 1.0140001 -2.1688295e+38
-0.011790577 -0.11460441 1.0200001 -2.1688295e+38
-0.0108686 -0.11482912 1.0220001 -2.1688295e+38
-0.059068479 -0.11388402 1.0220001 nan
-0.058009639 -0.11366116 1.0200001 nan
-0.056842603 -0.11321543 1.016 nan
-0.05557292 -0.11254684 1.01 nan
-0.054530725 -0.11232397 1.008 nan
-0.053492229 -0.11210111 1.006 nan
-0.052352935 -0.11165538 1.0020001 nan
-0.05132369 -0.11143252 1 nan
-0.050398938 -0.11143252 1 nan
-0.049325764 -0.11109821 0.99700004 nan
-0.048403785 -0.11109821 0.99700004 nan
-0.047434185 -0.11098678 0.99600005 nan
-0.046419732 -0.11076391 0.99400002 nan
-0.045500532 -0.11076391 0.99400002 nan
-0.044536479 -0.11065248 0.99300003 nan
-0.043530349 -0.11042962 0.99100006 nan
-0.042570919 -0.11031818 0.99000007 nan
-0.041655414 -0.11031818 0.99000007 -3.3422454e+38
-0.040616456 -0.10998389 0.98700005 -3.2089589e+38
-0.039703727 -0.10998389 0.98700005 -3.1022568e+38
-0.038751695 -0.10987245 0.98600006 -2.8621107e+38
-0.037763137 -0.10964959 0.98400003 -2.4083497e+38
-0.036853183 -0.10964959 0.98400003 -2.1682553e+38
-0.035943229 -0.10964959 0.98400003 -2.1818088e+38
-0.035033271 -0.10964959 0.98400003 -2.1818614e+38
-0.034123316 -0.10964959 0.98400003 -2.1552766e+38
-0.033213362 -0.10964959 0.98400003 -2.1020032e+38
-0.032336235 -0.10976102 0.98500007 -2.0621256e+38
-0.031425357 -0.10976102 0.98500007 -2.022197e+38
-0.030545454 -0.10987245 0.98600006 -2.0620743e+38
-0.029663704 -0.10998389 0.98700005 -2.0753671e+38
-0.028750975 -0.10998389 0.98700005 -2.0887631e+38
-0.027866451 -0.11009532 0.98800004 -2.1021075e+38
-0.027007356 -0.11031818 0.99000007 -2.0887631e+38
-0.026091853 -0.11031818 0.99000007 -2.0887631e+38
-0.025201781 -0.11042962 0.99100006 -2.0887631e+38
-0.024334364 -0.11065248 0.99300003 -2.0887631e+38
-0.023439666 -0.11076391 0.99400002 -2.1021075e+38
-0.022520464 -0.11076391 0.99400002 -2.1154519e+38
-0.021666456 -0.11109821 0.99700004 -2.1688295e+38
-0.020765286 -0.11120965 0.99800003 -2.1421407e+38
-0.019862268 -0.11132108 0.99900007 -2.1421407e+38
-0.018995313 -0.11165538 1.0020001 -2.1554851e+38
-0.018068712 -0.11165538 1.0020001 -2.1421407e+38
-0.017142111 -0.11165538 1.0020001 -2.1154519e+38
-0.016280243 -0.11210111 1.006 -2.1287961e+38
-0.015380461 -0.11232397 1.008 -2.1421405e+38
-0.014448312 -0.11232397 1.008 -2.1421405e+38
-0.013569798 -0.1127697 1.0120001 -2.1554849e+38
-0.012658918 -0.11299257 1.0140001 -2.1688295e+38
-0.011790577 -0.11366116 1.0200001 -2.1554851e+38
-0.0108686 -0.11388402 1.0220001 -2.1287963e+38
-0.0099526336 -0.11421832 1.0250001 -2.1421407e+38
-0.059068479 -0.11293893 1.0220001 nan
-0.058009639 -0.11271792 1.0200001 nan
-0.056842603 -0.11227588 1.016 nan
-0.055462874 -0.11139182 1.008 nan
-0.054530725 -0.11139182 1.008 nan
-0.053492229 -0.11117081 1.006 nan
-0.052352935 -0.11072878 1.0020001 nan
-0.05132369 -0.11050776 1 nan
-0.050398938 -0.11050776 1 nan
-0.049325764 -0.11017624 0.99700004 nan
-0.048355237 -0.11006573 0.99600005 nan
-0.047434185 -0.11006573 0.99600005 nan
-0.046419732 -0.10984471 0.99400002 nan
-0.045454755 -0.10973421 0.99300003 nan
-0.044536479 -0.10973421 0.99300003 nan
-0.043530349 -0.10951319 0.99100006 nan
-0.042570919 -0.10940269 0.99000007 nan
-0.04161334 -0.10929217 0.98900002 -3.3689342e+38
-0.040616456 -0.10907116 0.98700005 -3.2356477e+38
-0.039663501 -0.10896065 0.98600006 -3.1556348e+38
-0.038751695 -0.10896065 0.98600006 -2.9020924e+38
-0.037763137 -0.10873964 0.98400003 -2.394954e+38
-0.036853183 -0.10873964 0.98400003 -2.1148781e+38
-0.035906699 -0.10862913 0.98300004 -2.1417241e+38
-0.034997668 -0.10862913 0.98300004 -2.1551725e+38
-0.034088638 -0.10862913 0.98300004 -2.1419322e+38
-0.033213362 -0.10873964 0.98400003 -2.1020032e+38
-0.032336235 -0.10885014 0.98500007 -2.0621256e+38
-0.031425357 -0.10885014 0.98500007 -2.0221966e+38
-0.030514475 -0.10885014 0.98500007 -2.0487298e+38
-0.029663704 -0.10907116 0.98700005 -2.0620743e+38
-0.028750975 -0.10907116 0.98700005 -2.0887631e+38
-0.027838245 -0.10907116 0.98700005 -2.1154519e+38
-0.026980076 -0.10929217 0.98900002 -2.0887631e+38
-0.026091853 -0.10940269 0.99000007 -2.0620743e+38
-0.02517635 -0.10940269 0.99000007 -2.0754187e+38
-0.024334364 -0.10973421 0.99300003 -2.0754187e+38
-0.023416085 -0.10973421 0.99300003 -2.0754187e+38
-0.022520464 -0.10984471 0.99400002 -2.1021075e+38
-0.021666456 -0.11017624 0.99700004 -2.1154519e+38
-0.020765286 -0.11028674 0.99800003 -2.1287963e+38
-0.019862268 -0.11039725 0.99900007 -2.1421407e+38
-0.018995313 -0.11072878 1.0020001 -2.1554851e+38
-0.018068712 -0.11072878 1.0020001 -2.1421407e+38
-0.017142111 -0.11072878 1.0020001 -2.1154519e+38
-0.016280243 -0.11117081 1.006 -2.1154517e+38
-0.015380461 -0.11139182 1.008 -2.1421405e+38
-0.014448312 -0.11139182 1.008 -2.1821737e+38
-0.013569798 -0.11183386 1.0120001 -2.1821737e+38
-0.012658918 -0.11205487 1.0140001 -2.1688293e+38
-0.011767458 -0.1124969 1.018 -2.1287961e+38
-0.0108686 -0.11293893 1.0220001 -2.1154519e+38
-0.0099429246 -0.11315995 1.024 -2.1154519e+38
-0.059068479 -0.11199383 1.0220001 nan
-0.058009639 -0.11177467 1.0200001 nan
-0.056842603 -0.11133634 1.016 nan
-0.055462874 -0.11045967 1.008 nan
-0.054422528 -0.1102405 1.006 nan
-0.053492229 -0.1102405 1.006 nan
-0.052248441 -0.10958301 1 nan
-0.05132369 -0.10958301 1 nan
-0.050348539 -0.10947343 0.99900007 nan
-0.049276289 -0.10914468 0.99600005 nan
-0.048355237 -0.10914468 0.99600005 nan
-0.047386561 -0.1090351 0.99500006 nan
-0.046373032 -0.10881593 0.99300003 nan
-0.045454755 -0.10881593 0.99300003 nan
-0.044491626 -0.10870635 0.99200004 nan
-0.043486424 -0.10848718 0.99000007 nan
-0.042570919 -0.10848718 0.99000007 nan
-0.04161334 -0.1083776 0.98900002 -3.3422454e+38
-0.040575307 -0.10804885 0.98600006 -3.1956145e+38
-0.039663501 -0.10804885 0.98600006 -3.1422904e+38
-0.038712393 -0.10793927 0.98500007 -2.8887484e+38
-0.037724759 -0.1077201 0.98300004 -2.3549212e+38
-0.036815729 -0.1077201 0.98300004 -2.0881382e+38
-0.035906699 -0.1077201 0.98300004 -2.1416198e+38
-0.034997668 -0.1077201 0.98300004 -2.1151393e+38
-0.034088638 -0.1077201 0.98300004 -2.1151395e+38
-0.033179607 -0.1077201 0.98300004 -2.0753146e+38
-0.032303408 -0.10782968 0.98400003 -2.0753144e+38
-0.031425357 -0.10793927 0.98500007 -2.062074e+38
-0.030514475 -0.10793927 0.98500007 -2.0620743e+38
-0.029633651 -0.10804885 0.98600006 -2.0620743e+38
-0.028721845 -0.10804885 0.98600006 -2.1154519e+38
-0.027838245 -0.10815843 0.98700005 -2.1554851e+38
-0.026952796 -0.10826802 0.98800004 -2.1021075e+38
-0.026065499 -0.1083776 0.98900002 -2.0754187e+38
-0.02517635 -0.10848718 0.99000007 -2.1021075e+38
-0.024309859 -0.10870635 0.99200004 -2.1021075e+38
-0.023416085 -0.10881593 0.99300003 -2.0754187e+38
-0.022520464 -0.10892551 0.99400002 -2.0887631e+38
-0.021666456 -0.10925426 0.99700004 -2.1021075e+38
-0.020765286 -0.10936385 0.99800003 -2.1154519e+38
-0.019862268 -0.10947343 0.99900007 -2.1421407e+38
-0.018995313 -0.10980218 1.0020001 -2.1421407e+38
-0.018068712 -0.10980218 1.0020001 -2.1154517e+38
-0.017142111 -0.10980218 1.0020001 -2.1154517e+38
-0.016280243 -0.1102405 1.006 -2.1421405e+38
-0.015380461 -0.11045967 1.008 -2.1688293e+38
-0.014448312 -0.11045967 1.008 -2.1955181e+38
-0.013569798 -0.110898 1.0120001 -2.1955181e+38
-0.01263395 -0.110898 1.0120001 -2.1821737e+38
-0.011767458 -0.1115555 1.018 -2.1554849e+38
-0.010847331 -0.11177467 1.0200001 -2.1554851e+38
-0.0099429246 -0.112213 1.024 -2.1554851e+38
-0.058952887 -0.11083142 1.0200001 nan
-0.057895895 -0.11061411 1.018 nan
-0.056842603 -0.11039679 1.016 nan
-0.055462874 -0.10952752 1.008 nan
-0.054422528 -0.10931021 1.006 nan
-0.053492229 -0.10931021 1.006 nan
-0.052248441 -0.10865826 1 nan
-0.05132369 -0.10865826 1 nan
-0.050348539 -0.1085496 0.99900007 nan
-0.049276289 -0.10822362 0.99600005 nan
-0.048355237 -0.10822362 0.99600005 nan
-0.047386561 -0.10811497 0.99500006 nan
-0.046373032 -0.10789765 0.99300003 nan
-0.045408979 -0.10778899 0.99200004 nan
-0.044491626 -0.10778899 0.99200004 nan
-0.043486424 -0.10757168 0.99000007 nan
-0.042527918 -0.10746302 0.98900002 nan
-0.04161334 -0.10746302 0.98900002 -3.368778e+38
-0.040575307 -0.10713704 0.98600006 -3.2088547e+38
-0.039623275 -0.10702839 0.98500007 -3.1155501e+38
-0.038712393 -0.10702839 0.98500007 -2.8353711e+38
-0.037724759 -0.10681107 0.98300004 -2.2881996e+38
-0.036815729 -0.10681107 0.98300004 -2.074794e+38
-0.035906699 -0.10681107 0.98300004 -2.1416198e+38
-0.034997668 -0.10681107 0.98300004 -2.1017949e+38
-0.034088638 -0.10681107 0.98300004 -2.0751063e+38
-0.033179607 -0.10681107 0.98300004 -2.0352814e+38
-0.032303408 -0.10691973 0.98400003 -2.06197e+38
-0.031425357 -0.10702839 0.98500007 -2.062074e+38
-0.030514475 -0.10702839 0.98500007 -2.0620743e+38
-0.029633651 -0.10713704 0.98600006 -2.0620743e+38
-0.028721845 -0.10713704 0.98600006 -2.1287963e+38
-0.027810041 -0.10713704 0.98600006 -2.1287963e+38
-0.026952796 -0.10735436 0.98800004 -2.1154519e+38
-0.026065499 -0.10746302 0.98900002 -2.1021075e+38
-0.025150919 -0.10746302 0.98900002 -2.1287963e+38
-0.024285352 -0.10768034 0.99100006 -2.1421407e+38
-0.023392504 -0.10778899 0.99200004 -2.1287963e+38
-0.022497809 -0.10789765 0.99300003 -2.0887631e+38
-0.021644725 -0.10822362 0.99600005 -2.1021075e+38
-0.020765286 -0.10844094 0.99800003 -2.1287963e+38
-0.019862268 -0.1085496 0.99900007 -2.1421405e+38
-0.018995313 -0.10887557 1.0020001 -2.1287961e+38
-0.018068712 -0.10887557 1.0020001 -2.1021073e+38
-0.017142111 -0.10887557 1.0020001 -2.1287961e+38
-0.016280243 -0.10931021 1.006 -2.1554849e+38
-0.015380461 -0.10952752 1.008 -2.1688293e+38
-0.014448312 -0.10952752 1.008 -2.1688293e+38
-0.013569798 -0.10996216 1.0120001 -2.1821737e+38
-0.012658918 -0.11017948 1.0140001 -2.1821737e+38
-0.058952887 -0.10988817 1.0200001 nan
-0.057895895 -0.10967271 1.018 nan
-0.056842603 -0.10945725 1.016 nan
-0.055462874 -0.10859538 1.008 nan
-0.054422528 -0.10837991 1.006 nan
-0.053492229 -0.10837991 1.006 nan
-0.052352935 -0.10794897 1.0020001 nan
-0.05132369 -0.10773351 1 nan
-0.050398938 -0.10773351 1 nan
-0.049276289 -0.10730258 0.99600005 nan
-0.048355237 -0.10730258 0.99600005 nan
-0.047386561 -0.10719484 0.99500006 nan
-0.046373032 -0.10697937 0.99300003 nan
-0.045454755 -0.10697937 0.99300003 nan
-0.044491626 -0.10687164 0.99200004 nan
-0.043486424 -0.10665617 0.99000007 nan
-0.042570919 -0.10665617 0.99000007 nan
-0.04161334 -0.10654844 0.98900002 -3.368778e+38
-0.040575307 -0.10622524 0.98600006 -3.1955103e+38
-0.039663501 -0.10622524 0.98600006 -3.0888613e+38
-0.038712393 -0.1061175 0.98500007 -2.8086823e+38
-0.037724759 -0.10590204 0.98300004 -2.2881481e+38
-0.036815729 -0.10590204 0.98300004 -2.141516e+38
-0.035906699 -0.10590204 0.98300004 -2.1415681e+38
-0.034997668 -0.10590204 0.98300004 -2.0884505e+38
-0.034088638 -0.10590204 0.98300004 -2.0484175e+38
-0.033179607 -0.10590204 0.98300004 -2.021937e+38
-0.032303408 -0.10600977 0.98400003 -2.06197e+38
-0.031425357 -0.1061175 0.98500007 -2.0754185e+38
-0.030514475 -0.1061175 0.98500007 -2.0620743e+38
-0.029633651 -0.10622524 0.98600006 -2.0487298e+38
-0.028750975 -0.10633297 0.98700005 -2.0620743e+38
-0.027838245 -0.10633297 0.98700005 -2.0887631e+38
-0.026952796 -0.10644071 0.98800004 -2.1154519e+38
-0.026065499 -0.10654844 0.98900002 -2.1154519e+38
-0.025150919 -0.10654844 0.98900002 -2.1021075e+38
-0.024309859 -0.10687164 0.99200004 -2.1421407e+38
-0.023392504 -0.10687164 0.99200004 -2.1554851e+38
-0.022497809 -0.10697937 0.99300003 -2.1287963e+38
-0.021666456 -0.1074103 0.99700004 -2.1021075e+38
-0.020765286 -0.10751804 0.99800003 -2.1287963e+38
-0.019862268 -0.10762578 0.99900007 -2.1421405e+38
-0.018995313 -0.10794897 1.0020001 -2.1154517e+38
-0.018068712 -0.10794897 1.0020001 -2.1154517e+38
-0.017176328 -0.10816444 1.0040001 -2.1554849e+38
-0.016280243 -0.10837991 1.006 -2.1688293e+38
-0.015380461 -0.10859538 1.008 -2.1688293e+38
-0.014448312 -0.10859538 1.008 -2.1287961e+38
-0.013569798 -0.10902631 1.0120001 -2.1421405e+38
-0.012658918 -0.10924178 1.0140001 -2.1554849e+38
-0.058952887 -0.10894493 1.0200001 nan
-0.057895895 -0.10873131 1.018 nan
-0.056842603 -0.1085177 1.016 nan
-0.055462874 -0.10766323 1.008 nan
-0.054530725 -0.10766323 1.008 nan
-0.053492229 -0.10744961 1.006 nan
-0.052352935 -0.10702237 1.0020001 nan
-0.05132369 -0.10680876 1 nan
-0.050398938 -0.10680876 1 nan
-0.049325764 -0.10648833 0.99700004 nan
-0.048355237 -0.10638152 0.99600005 nan
-0.047386561 -0.10627471 0.99500006 nan
-0.046373032 -0.10606109 0.99300003 nan
-0.045454755 -0.10606109 0.99300003 nan
-0.044491626 -0.10595429 0.99200004 nan
-0.043530349 -0.10584748 0.99100006 nan
-0.042570919 -0.10574067 0.99000007 nan
-0.04161334 -0.10563386 0.98900002 -3.3955715e+38
-0.040616456 -0.10542024 0.98700005 -3.3022655e+38
-0.039663501 -0.10531344 0.98600006 -3.2354411e+38
-0.038712393 -0.10520662 0.98500007 -2.8219223e+38
-0.037724759 -0.10499301 0.98300004 -2.2480619e+38
-0.036815729 -0.10499301 0.98300004 -2.1281714e+38
-0.035906699 -0.10499301 0.98300004 -2.0616579e+38
-0.034997668 -0.10499301 0.98300004 -2.0484175e+38
-0.034088638 -0.10499301 0.98300004 -2.0750021e+38
-0.033179607 -0.10499301 0.98300004 -2.0751061e+38
-0.032336235 -0.10520662 0.98500007 -2.1151393e+38
-0.031425357 -0.10520662 0.98500007 -2.1152434e+38
-0.030545454 -0.10531344 0.98600006 -2.075315e+38
-0.029663704 -0.10542024 0.98700005 -2.0486262e+38
-0.028750975 -0.10542024 0.98700005 -2.022041e+38
-0.027838245 -0.10542024 0.98700005 -2.0754187e+38
-0.026952796 -0.10552705 0.98800004 -2.1421407e+38
-0.026065499 -0.10563386 0.98900002 -2.1688295e+38
-0.025150919 -0.10563386 0.98900002 -2.1287448e+38
-0.024285352 -0.10584748 0.99100006 -2.102056e+38
-0.023392504 -0.10595429 0.99200004 -2.1154004e+38
-0.022497809 -0.10606109 0.99300003 -2.1554336e+38
-0.021644725 -0.10638152 0.99600005 -2.1554851e+38
-0.020765286 -0.10659514 0.99800003 -2.1554851e+38
-0.019862268 -0.10670195 0.99900007 -2.1287961e+38
-0.018995313 -0.10702237 1.0020001 -2.1021073e+38
-0.018068712 -0.10702237 1.0020001 -2.1154517e+38
-0.017176328 -0.10723599 1.0040001 -2.1554849e+38
-0.016280243 -0.10744961 1.006 -2.1821737e+38
-0.015380461 -0.10766323 1.008 -2.1821737e+38
-0.014476979 -0.10787684 1.01 -2.1421405e+38
-0.013596616 -0.10830408 1.0140001 -2.1421405e+38
-0.012658918 -0.10830408 1.0140001 -2.1421405e+38
-0.058837291 -0.10778992 1.018 nan
-0.057782151 -0.10757815 1.016 nan
-0.056730706 -0.10736638 1.0140001 nan
-0.055462874 -0.10673108 1.008 nan
-0.054422528 -0.10651931 1.006 nan
-0.053492229 -0.10651931 1.006 nan
-0.052352935 -0.10609578 1.0020001 nan
-0.05132369 -0.10588401 1 nan
-0.050398938 -0.10588401 1 nan
-0.049325764 -0.10556635 0.99700004 nan
-0.048355237 -0.10546047 0.99600005 nan
-0.047386561 -0.10535458 0.99500006 nan
-0.046373032 -0.10514282 0.99300003 nan
-0.045454755 -0.10514282 0.99300003 nan
-0.044491626 -0.10503693 0.99200004 nan
-0.043486424 -0.10482516 0.99000007 nan
-0.042527918 -0.10471928 0.98900002 nan
-0.04161334 -0.10471928 0.98900002 nan
-0.040575307 -0.10440163 0.98600006 -3.3288499e+38
-0.039623275 -0.10429575 0.98500007 -3.2354411e+38
-0.038712393 -0.10429575 0.98500007 -2.7819406e+38
-0.037724759 -0.10408398 0.98300004 -2.2347175e+38
-0.036815729 -0.10408398 0.98300004 -2.128171e+38
-0.035906699 -0.10408398 0.98300004 -2.0615534e+38
-0.034997668 -0.10408398 0.98300004 -2.0483132e+38
-0.034088638 -0.10408398 0.98300004 -2.0483132e+38
-0.033179607 -0.10408398 0.98300004 -2.0484173e+38
-0.032303408 -0.10418986 0.98400003 -2.0618653e+38
-0.031425357 -0.10429575 0.98500007 -2.0354368e+38
-0.030514475 -0.10429575 0.98500007 -2.0088526e+38
-0.029633651 -0.10440163 0.98600006 -1.9822678e+38
-0.028750975 -0.10450751 0.98700005 -2.022041e+38
-0.027838245 -0.10450751 0.98700005 -2.0620743e+38
-0.026952796 -0.10461339 0.98800004 -2.1021075e+38
-0.026065499 -0.10471928 0.98900002 -2.1287963e+38
-0.025150919 -0.10471928 0.98900002 -2.1154519e+38
-0.024285352 -0.10493105 0.99100006 -2.0887631e+38
-0.023392504 -0.10503693 0.99200004 -2.0754187e+38
-0.022497809 -0.10514282 0.99300003 -2.0887631e+38
-0.021644725 -0.10546047 0.99600005 -2.1554851e+38
-0.02074448 -0.10556635 0.99700004 -2.1421407e+38
-0.019862268 -0.10577812 0.99900007 -2.1154517e+38
-0.018995313 -0.10609578 1.0020001 -2.1021073e+38
-0.018068712 -0.10609578 1.0020001 -2.1287961e+38
-0.017142111 -0.10609578 1.0020001 -2.1821737e+38
-0.016280243 -0.10651931 1.006 -2.1955181e+38
-0.015380461 -0.10673108 1.008 -2.1821737e+38
-0.014476979 -0.10694285 1.01 -2.1554849e+38
-0.013596616 -0.10736638 1.0140001 -2.1688293e+38
-0.012658918 -0.10736638 1.0140001 -2.1688293e+38
-0.011813696 -0.10821345 1.0220001 -2.1688293e+38
-0.010900504 -0.1085311 1.0250001 -2.1821739e+38
-0.058721699 -0.1066386 1.016 nan
-0.057668407 -0.10642868 1.0140001 nan
-0.056730706 -0.10642868 1.0140001 nan
-0.055462874 -0.10579893 1.008 nan
-0.054422528 -0.10558901 1.006 nan
-0.053385884 -0.10537909 1.0040001 nan
-0.052248441 -0.10495926 1 nan
-0.05132369 -0.10495926 1 nan
-0.050398938 -0.10495926 1 nan
-0.049325764 -0.10464437 0.99700004 nan
-0.048355237 -0.10453942 0.99600005 nan
-0.047386561 -0.10443446 0.99500006 nan
-0.046373032 -0.10422454 0.99300003 nan
-0.045454755 -0.10422454 0.99300003 nan
-0.044491626 -0.10411958 0.99200004 nan
-0.043486424 -0.10390966 0.99000007 nan
-0.042527918 -0.1038047 0.98900002 nan
-0.041571263 -0.10369974 0.98800004 nan
-0.040575307 -0.10348982 0.98600006 -3.2755763e+38
-0.039623275 -0.10338487 0.98500007 -3.2087526e+38
-0.038712393 -0.10338487 0.98500007 -2.7418558e+38
-0.037724759 -0.10317495 0.98300004 -2.2080287e+38
-0.036815729 -0.10317495 0.98300004 -2.1148266e+38
-0.035906699 -0.10317495 0.98300004 -2.0349688e+38
-0.034997668 -0.10317495 0.98300004 -2.0350729e+38
-0.034088638 -0.10317495 0.98300004 -2.0350731e+38
-0.033179607 -0.10317495 0.98300004 -2.0351252e+38
-0.032303408 -0.1032799 0.98400003 -2.0485213e+38
-0.03139345 -0.1032799 0.98400003 -2.0486256e+38
-0.030514475 -0.10338487 0.98500007 -2.06197e+38
-0.029633651 -0.10348982 0.98600006 -2.0486256e+38
-0.028721845 -0.10348982 0.98600006 -2.06197e+38
-0.027810041 -0.10348982 0.98600006 -2.0753144e+38
-0.026952796 -0.10369974 0.98800004 -2.088659e+38
-0.026065499 -0.1038047 0.98900002 -2.088659e+38
-0.025150919 -0.1038047 0.98900002 -2.0754187e+38
-0.024309859 -0.10411958 0.99200004 -2.0754187e+38
-0.023392504 -0.10411958 0.99200004 -2.0754187e+38
-0.022497809 -0.10422454 0.99300003 -2.0887631e+38
-0.021644725 -0.10453942 0.99600005 -2.1287961e+38
-0.02074448 -0.10464437 0.99700004 -2.1154517e+38
-0.019842384 -0.10474934 0.99800003 -2.1021073e+38
-0.018957399 -0.10495926 1 -2.1021073e+38
-0.018068712 -0.10516917 1.0020001 -2.1554849e+38
-0.017142111 -0.10516917 1.0020001 -2.1955181e+38
-0.016280243 -0.10558901 1.006 -2.1955181e+38
-0.015380461 -0.10579893 1.008 -2.1688293e+38
-0.014448312 -0.10579893 1.008 -2.1554849e+38
-0.013596616 -0.10642868 1.0140001 -2.1688293e+38
-0.012658918 -0.10642868 1.0140001 -2.1821737e+38
-0.011813696 -0.10726836 1.0220001 -2.1821737e+38
-0.010900504 -0.10758323 1.0250001 -2.1821739e+38
-0.058721699 -0.10569905 1.016 nan
-0.057668407 -0.10549098 1.0140001 nan
-0.056618813 -0.10528292 1.0120001 nan
-0.055462874 -0.10486678 1.008 nan
-0.054422528 -0.10465871 1.006 nan
-0.053385884 -0.10445064 1.0040001 nan
-0.052248441 -0.10403451 1 nan
-0.05132369 -0.10403451 1 nan
-0.050398938 -0.10403451 1 nan
-0.049325764 -0.1037224 0.99700004 nan
-0.048355237 -0.10361836 0.99600005 nan
-0.047386561 -0.10351433 0.99500006 nan
-0.046373032 -0.10330626 0.99300003 nan
-0.045454755 -0.10330626 0.99300003 nan
-0.044491626 -0.10320222 0.99200004 nan
-0.043486424 -0.10299416 0.99000007 nan
-0.042527918 -0.10289013 0.98900002 nan
-0.041571263 -0.10278609 0.98800004 -3.3821224e+38
-0.040575307 -0.10257802 0.98600006 -3.2487838e+38
-0.039623275 -0.10247398 0.98500007 -3.1820638e+38
-0.038673092 -0.10236995 0.98400003 -2.715167e+38
-0.037724759 -0.10226592 0.98300004 -2.1680991e+38
-0.036815729 -0.10226592 0.98300004 -2.1015858e+38
-0.035906699 -0.10226592 0.98300004 -2.0484169e+38
-0.034997668 -0.10226592 0.98300004 -2.0218321e+38
-0.034088638 -0.10226592 0.98300004 -2.0350731e+38
-0.033179607 -0.10226592 0.98300004 -2.0351252e+38
-0.032303408 -0.10236995 0.98400003 -2.0751584e+38
-0.03139345 -0.10236995 0.98400003 -2.0753146e+38
-0.030483497 -0.10236995 0.98400003 -2.1151393e+38
-0.029603595 -0.10247398 0.98500007 -2.0885546e+38
-0.028721845 -0.10257802 0.98600006 -2.1152434e+38
-0.027810041 -0.10257802 0.98600006 -2.0886588e+38
-0.026952796 -0.10278609 0.98800004 -2.088659e+38
-0.026039142 -0.10278609 0.98800004 -2.0753146e+38
-0.025150919 -0.10289013 0.98900002 -2.0619702e+38
-0.024285352 -0.10309819 0.99100006 -2.0753146e+38
-0.023392504 -0.10320222 0.99200004 -2.1020034e+38
-0.022497809 -0.10330626 0.99300003 -2.1286922e+38
-0.021644725 -0.10361836 0.99600005 -2.128692e+38
-0.02074448 -0.1037224 0.99700004 -2.128692e+38
-0.019842384 -0.10382643 0.99800003 -2.1154517e+38
-0.018957399 -0.10403451 1 -2.1287961e+38
-0.018068712 -0.10424257 1.0020001 -2.1688293e+38
-0.017142111 -0.10424257 1.0020001 -2.1821737e+38
-0.016280243 -0.10465871 1.006 -2.1821737e+38
-0.015380461 -0.10486678 1.008 -2.1554849e+38
-0.014448312 -0.10486678 1.008 -2.1421405e+38
-0.013569798 -0.10528292 1.0120001 -2.1554849e+38
-0.012658918 -0.10549098 1.0140001 -2.1688293e+38
-0.011790577 -0.10611519 1.0200001 -2.1821737e+38
-0.010889869 -0.10653133 1.024 -2.1821739e+38
-0.058721699 -0.10475951 1.016 nan
-0.057668407 -0.10455329 1.0140001 nan
-0.056618813 -0.10434707 1.0120001 nan
-0.055462874 -0.10393463 1.008 nan
-0.054422528 -0.10372841 1.006 nan
-0.053492229 -0.10372841 1.006 nan
-0.052352935 -0.10331597 1.0020001 nan
-0.051426336 -0.10331597 1.0020001 nan
-0.050398938 -0.10310975 1 nan
-0.049424712 -0.10300664 0.99900007 nan
-0.048452336 -0.10290353 0.99800003 nan
-0.047481809 -0.10280042 0.99700004 nan
-0.046419732 -0.1024911 0.99400002 nan
-0.045500532 -0.1024911 0.99400002 nan
-0.044536479 -0.10238798 0.99300003 nan
-0.043486424 -0.10207865 0.99000007 nan
-0.042527918 -0.10197555 0.98900002 nan
-0.041571263 -0.10187244 0.98800004 nan
-0.040575307 -0.10166621 0.98600006 -3.2885039e+38
-0.039663501 -0.10166621 0.98600006 -3.1155487e+38
-0.038712393 -0.1015631 0.98500007 -2.6354117e+38
-0.037763137 -0.10145999 0.98400003 -2.0617593e+38
-0.036853183 -0.10145999 0.98400003 -2.0752081e+38
-0.035943229 -0.10145999 0.98400003 -2.0485718e+38
-0.035033271 -0.10145999 0.98400003 -2.0218832e+38
-0.034123316 -0.10145999 0.98400003 -2.03502e+38
-0.033213362 -0.10145999 0.98400003 -2.0350725e+38
-0.032336235 -0.1015631 0.98500007 -2.0353327e+38
-0.031425357 -0.1015631 0.98500007 -2.0487812e+38
-0.030514475 -0.1015631 0.98500007 -2.0355414e+38
-0.029633651 -0.10166621 0.98600006 -2.022197e+38
-0.028721845 -0.10166621 0.98600006 -2.0753144e+38
-0.027838245 -0.10176933 0.98700005 -2.0886588e+38
-0.026980076 -0.10197555 0.98900002 -2.1020034e+38
-0.026091853 -0.10207865 0.99000007 -2.088659e+38
-0.02517635 -0.10207865 0.99000007 -2.0753146e+38
-0.024334364 -0.10238798 0.99300003 -2.088659e+38
-0.023439666 -0.1024911 0.99400002 -2.1020034e+38
-0.022520464 -0.1024911 0.99400002 -2.1153478e+38
-0.021666456 -0.10280042 0.99700004 -2.1153476e+38
-0.020765286 -0.10290353 0.99800003 -2.128692e+38
-0.019862268 -0.10300664 0.99900007 -2.1553808e+38
-0.018957399 -0.10310975 1 -2.1687252e+38
-0.018068712 -0.10331597 1.0020001 -2.1421405e+38
-0.017142111 -0.10331597 1.0020001 -2.1421405e+38
-0.016280243 -0.10372841 1.006 -2.1421405e+38
-0.015380461 -0.10393463 1.008 -2.1421405e+38
-0.014448312 -0.10393463 1.008 -2.1287961e+38
-0.013596616 -0.10455329 1.0140001 -2.1554849e+38
-0.012658918 -0.10455329 1.0140001 -2.1554849e+38
-0.011790577 -0.10517195 1.0200001 -2.1688293e+38
-0.0108686 -0.10537817 1.0220001 -2.1821739e+38
-0.0099526336 -0.10568749 1.0250001 -2.1955183e+38
-0.058721699 -0.10381996 1.016 nan
-0.057668407 -0.10361559 1.0140001 nan
-0.056730706 -0.10361559 1.0140001 nan
-0.055462874 -0.10300248 1.008 nan
-0.054530725 -0.10300248 1.008 nan
-0.053492229 -0.10279811 1.006 nan
-0.052352935 -0.10238937 1.0020001 nan
-0.051426336 -0.10238937 1.0020001 nan
-0.050499734 -0.10238937 1.0020001 nan
-0.049424712 -0.10208282 0.99900007 nan
-0.048452336 -0.10198063 0.99800003 nan
-0.047529433 -0.10198063 0.99800003 nan
-0.046466433 -0.10167407 0.99500006 nan
-0.045500532 -0.10157189 0.99400002 nan
-0.044536479 -0.1014697 0.99300003 nan
-0.043530349 -0.10126533 0.99100006 nan
-0.042570919 -0.10116315 0.99000007 nan
-0.04161334 -0.10106096 0.98900002 nan
-0.040575307 -0.10075441 0.98600006 -3.2619191e+38
-0.039663501 -0.10075441 0.98600006 -3.0755155e+38
-0.038751695 -0.10075441 0.98600006 -2.5954306e+38
-0.037763137 -0.10055004 0.98400003 -2.0085382e+38
-0.036853183 -0.10055004 0.98400003 -2.0353836e+38
-0.035943229 -0.10055004 0.98400003 -2.0219875e+38
-0.035033271 -0.10055004 0.98400003 -2.0219875e+38
-0.034123316 -0.10055004 0.98400003 -2.0617613e+38
-0.033213362 -0.10055004 0.98400003 -2.0485209e+38
-0.032336235 -0.10065223 0.98500007 -2.0352812e+38
-0.031425357 -0.10065223 0.98500007 -2.0353852e+38
-0.030514475 -0.10065223 0.98500007 -2.0619702e+38
-0.029633651 -0.10075441 0.98600006 -2.0753146e+38
-0.028750975 -0.10085659 0.98700005 -2.06197e+38
-0.027838245 -0.10085659 0.98700005 -2.0753144e+38
-0.026980076 -0.10106096 0.98900002 -2.088659e+38
-0.026091853 -0.10116315 0.99000007 -2.088659e+38
-0.025201781 -0.10126533 0.99100006 -2.088659e+38
-0.02435887 -0.10157189 0.99400002 -2.1020034e+38
-0.023439666 -0.10157189 0.99400002 -2.1153478e+38
-0.022543121 -0.10167407 0.99500006 -2.1153478e+38
-0.021666456 -0.10187844 0.99700004 -2.1153476e+38
-0.020765286 -0.10198063 0.99800003 -2.128692e+38
-0.019862268 -0.10208282 0.99900007 -2.1420364e+38
-0.018995313 -0.10238937 1.0020001 -2.1420364e+38
-0.018068712 -0.10238937 1.0020001 -2.1021073e+38
-0.017142111 -0.10238937 1.0020001 -2.0887629e+38
-0.016280243 -0.10279811 1.006 -2.0887631e+38
-0.015380461 -0.10300248 1.008 -2.1021075e+38
-0.014448312 -0.10300248 1.008 -2.1287961e+38
-0.013596616 -0.10361559 1.0140001 -2.1421405e+38
-0.012658918 -0.10361559 1.0140001 -2.1554849e+38
-0.011790577 -0.1042287 1.0200001 -2.1688293e+38
-0.0108686 -0.10443307 1.0220001 -2.1821739e+38
-0.0099429246 -0.10463744 1.024 -2.1821739e+38
-0.058721699 -0.10288041 1.016 nan
-0.057668407 -0.10267789 1.0140001 nan
-0.056730706 -0.10267789 1.0140001 nan
-0.05557292 -0.10227285 1.01 nan
-0.054530725 -0.10207033 1.008 nan
-0.053492229 -0.10186781 1.006 nan
-0.052457433 -0.10166529 1.0040001 nan
-0.051528983 -0.10166529 1.0040001 nan
-0.050499734 -0.10146277 1.0020001 nan
-0.049474187 -0.10126025 1 nan
-0.048500884 -0.10115899 0.99900007 nan
-0.047529433 -0.10105773 0.99800003 nan
-0.046466433 -0.10075395 0.99500006 nan
-0.045500532 -0.10065269 0.99400002 nan
-0.044581328 -0.10065269 0.99400002 nan
-0.043530349 -0.1003489 0.99100006 nan
-0.042570919 -0.10024764 0.99000007 nan
-0.04161334 -0.10014638 0.98900002 -3.3818101e+38
-0.040616456 -0.099943869 0.98700005 -3.2619195e+38
-0.039663501 -0.099842608 0.98600006 -3.1154972e+38
-0.038751695 -0.099842608 0.98600006 -2.63536e+38
-0.037801515 -0.099741347 0.98500007 -2.0351236e+38
-0.036890633 -0.099741347 0.98500007 -2.0351761e+38
-0.035979755 -0.099741347 0.98500007 -2.0085924e+38
-0.035068873 -0.099741347 0.98500007 -2.0219368e+38
-0.034157995 -0.099741347 0.98500007 -2.0618657e+38
-0.033247117 -0.099741347 0.98500007 -2.0486256e+38
-0.032369062 -0.099842608 0.98600006 -2.0352812e+38
-0.03145726 -0.099842608 0.98600006 -2.0486256e+38
-0.030545454 -0.099842608 0.98600006 -2.0885032e+38
-0.029663704 -0.099943869 0.98700005 -2.1151921e+38
-0.028750975 -0.099943869 0.98700005 -2.0885028e+38
-0.027866451 -0.10004513 0.98800004 -2.088659e+38
-0.027007356 -0.10024764 0.99000007 -2.088659e+38
-0.02611821 -0.1003489 0.99100006 -2.0753146e+38
-0.025227211 -0.10045017 0.99200004 -2.0753146e+38
-0.02435887 -0.10065269 0.99400002 -2.1020034e+38
-0.023463247 -0.10075395 0.99500006 -2.1153478e+38
-0.022565776 -0.10085521 0.99600005 -2.1286922e+38
-0.021688187 -0.10105773 0.99800003 -2.1286922e+38
-0.020786094 -0.10115899 0.99900007 -2.1153478e+38
-0.01988215 -0.10126025 1 -2.1153476e+38
-0.018995313 -0.10146277 1.0020001 -2.1020032e+38
-0.018068712 -0.10146277 1.0020001 -2.0754187e+38
-0.017176328 -0.10166529 1.0040001 -2.0487298e+38
-0.016280243 -0.10186781 1.006 -2.0620743e+38
-0.015380461 -0.10207033 1.008 -2.0887631e+38
-0.014476979 -0.10227285 1.01 -2.1154517e+38
-0.013596616 -0.10267789 1.0140001 -2.1421405e+38
-0.012683886 -0.10288041 1.016 -2.1688293e+38
-0.011767458 -0.10308293 1.018 -2.1688293e+38
-0.010847331 -0.10328545 1.0200001 -2.1554849e+38
-0.0099235047 -0.10348798 1.0220001 -2.1688293e+38
-0.058721699 -0.10194086 1.016 nan
-0.057668407 -0.1017402 1.0140001 nan
-0.056730706 -0.1017402 1.0140001 nan
-0.05557292 -0.10133886 1.01 nan
-0.054530725 -0.10113818 1.008 nan
-0.053492229 -0.10093751 1.006 nan
-0.052457433 -0.10073684 1.0040001 nan
-0.051426336 -0.10053617 1.0020001 nan
-0.050499734 -0.10053617 1.0020001 nan
-0.049474187 -0.1003355 1 nan
-0.048500884 -0.10023516 0.99900007 nan
